ply
format ascii 1.0
element vertex 1266
property float x
property float y
property float z
property uchar red
property uchar green
property uchar blue
end_header
0.564281 0.016431 0.248581 76 0 153
0.395822 -0.012904 -0.180613 76 153 0
-0.059126 0.012949 -0.058519 153 0 76
-0.080137 0.000867 0.017477 0 127 127
-0.229850 0.000209 0.125987 0 127 127
0.055322 0.000149 -0.065421 0 127 127
-0.485821 -0.013034 0.182730 0 127 127
0.555185 0.000090 -0.420200 76 153 0
0.751238 -0.016236 -0.264127 76 153 0
-0.429460 -0.001102 -0.108369 153 0 76
-0.804374 0.012501 -0.253009 153 0 76
0.150487 0.000866 -0.063697 76 153 0
0.317143 -0.010838 -0.147319 76 153 0
-0.449200 -0.001102 -0.112854 153 0 76
0.600067 -0.016793 -0.200745 76 153 0
-0.435452 -0.001102 -0.098410 153 0 76
-0.130705 -0.016796 0.036830 0 127 127
-0.109621 -0.016796 0.057030 0 127 127
-0.061525 -0.001102 0.053417 153 0 76
0.039077 0.016431 0.061289 153 0 76
-0.653859 0.016431 -0.172839 153 0 76
0.683542 -0.001102 0.310428 76 0 153
-0.080740 0.015330 0.081185 153 0 76
-0.608515 -0.000133 0.173192 0 127 127
-0.226129 0.016431 -0.051178 153 0 76
-0.822337 -0.005205 0.223667 0 127 127
-0.100390 -0.016796 0.005169 0 127 127
-0.655980 -0.016796 0.184383 0 127 127
-0.346491 0.015943 -0.032392 153 0 76
0.150100 -0.016514 -0.121236 76 153 0
0.447137 0.014496 0.404217 76 0 153
0.591950 -0.016796 -0.212625 76 153 0
0.045711 -0.003275 0.069591 0 127 127
-0.400783 0.000867 0.143821 0 127 127
-0.437918 0.000867 0.125546 0 127 127
-0.346480 -0.001102 -0.044310 153 0 76
0.743911 -0.010974 -0.254198 76 153 0
0.063083 -0.016796 -0.059825 0 127 127
0.030022 -0.001102 0.008312 153 0 76
-0.081541 0.010767 -0.064840 153 0 76
-0.398099 -0.016153 0.160478 0 127 127
0.203196 0.016431 0.159295 76 0 153
0.727187 0.013884 0.419839 76 0 153
0.710434 0.005978 0.387843 76 0 153
0.131567 0.016431 0.096861 76 0 153
0.536119 0.000867 -0.281819 76 153 0
0.043049 0.016431 0.025369 153 0 76
0.600037 -0.000388 -0.432801 76 153 0
0.182710 -0.001091 0.189219 76 0 153
-0.892047 -0.001655 0.268886 0 127 127
0.113739 0.002791 0.055560 153 0 76
-0.100744 0.000867 -0.006528 0 127 127
-0.240582 0.000867 0.081095 0 127 127
-0.688283 -0.000133 0.208158 0 127 127
-0.824516 0.015483 -0.252776 153 0 76
-0.280529 0.000867 0.104246 0 127 127
-0.283464 0.000867 0.076501 0 127 127
-0.192346 0.000867 0.053497 0 127 127
-0.450726 0.000867 0.154054 0 127 127
-0.663149 0.016431 -0.179405 153 0 76
-0.082293 0.000867 0.073119 0 127 127
-0.171701 -0.016796 0.071798 0 127 127
-0.447231 -0.001102 -0.135887 153 0 76
0.682433 0.016366 0.482752 76 0 153
0.431489 0.015692 0.297708 76 0 153
-0.104452 -0.001102 -0.047037 153 0 76
-0.047320 0.016431 0.047546 153 0 76
-0.655563 -0.001102 -0.171914 153 0 76
-0.734646 0.007208 -0.236267 153 0 76
-0.621682 0.000004 0.207399 0 127 127
-0.167485 -0.016796 0.057518 0 127 127
-0.324310 0.000867 0.069299 0 127 127
0.132437 0.016431 0.150750 76 0 153
0.102059 -0.001102 0.115920 153 0 76
-0.159567 0.002715 -0.085489 153 0 76
-0.039416 0.000852 -0.052843 153 0 76
0.094676 0.015202 -0.016371 153 0 76
-0.656861 -0.002265 0.166592 0 127 127
-0.581425 0.002288 -0.129664 153 0 76
-0.486791 -0.001102 -0.109497 153 0 76
-0.209418 -0.001102 -0.073619 153 0 76
0.151741 0.016431 0.162637 76 0 153
-0.101529 0.000867 0.056707 0 127 127
0.518079 -0.016770 -0.341812 76 153 0
0.615006 0.012064 0.511930 76 0 153
0.057505 -0.016796 -0.049904 0 127 127
0.658325 -0.001102 0.289786 76 0 153
0.084894 0.016431 0.077987 153 0 76
-0.075747 0.016431 -0.000007 153 0 76
-0.431767 0.016200 -0.131013 153 0 76
0.645364 0.000864 -0.448553 76 153 0
0.027302 0.016431 -0.016804 153 0 76
-0.836357 -0.001068 -0.256969 153 0 76
-0.783094 -0.010339 0.246225 0 127 127
0.245877 0.008438 0.157688 76 0 153
0.523674 0.000651 -0.255753 76 153 0
0.203961 -0.016796 -0.100981 76 153 0
0.518733 0.015592 0.267258 76 0 153
0.283705 -0.016768 -0.139734 76 153 0
0.060871 -0.015919 0.065990 0 127 127
-0.099851 0.000867 0.017735 0 127 127
0.496852 0.016431 0.445425 76 0 153
-0.008198 -0.001102 0.063903 153 0 76
0.410919 0.000819 -0.229780 76 153 0
0.142431 0.016431 0.124169 76 0 153
0.603853 -0.000268 0.486070 76 0 153
0.708651 0.000490 -0.242638 76 153 0
-0.802153 0.015244 -0.223865 153 0 76
0.630747 0.000114 0.508198 76 0 153
0.125951 -0.001102 0.140980 76 0 153
0.016938 0.004730 0.123803 153 0 76
0.884015 -0.006508 -0.429183 76 153 0
0.084347 -0.016796 0.016260 0 127 127
0.721839 0.006243 0.359338 76 0 153
-0.251051 0.015479 -0.104115 153 0 76
-0.753725 0.016068 -0.213781 153 0 76
0.136820 -0.016796 -0.082356 76 153 0
0.694018 -0.008178 -0.240909 76 153 0
-0.333886 0.000867 0.121783 0 127 127
-0.481268 0.006010 -0.087008 153 0 76
-0.730908 0.013164 -0.193126 153 0 76
0.372537 -0.015441 -0.219461 76 153 0
-0.223735 0.016262 -0.044139 153 0 76
-0.691442 -0.016033 0.223020 0 127 127
0.570911 0.012788 0.482201 76 0 153
-0.316250 -0.000665 0.048462 0 127 127
0.197184 -0.000678 -0.146124 76 153 0
-0.264140 0.012178 -0.113598 153 0 76
-0.014783 0.000867 -0.014729 0 127 127
-0.277396 -0.016796 0.091913 0 127 127
0.057087 0.016431 0.021729 153 0 76
-0.284653 0.005957 -0.119355 153 0 76
-0.445684 -0.016796 0.105188 0 127 127
-0.418281 -0.001102 -0.115153 153 0 76
-0.389908 -0.012306 0.072680 0 127 127
0.824048 -0.005237 -0.413519 76 153 0
-0.428719 -0.001102 -0.134554 153 0 76
-0.157698 0.016431 0.024508 153 0 76
-0.265080 0.000814 0.129793 0 127 127
0.592419 0.000858 -0.232832 76 153 0
0.734991 -0.007223 -0.246659 76 153 0
0.545957 -0.003743 -0.358723 76 153 0
-0.860940 0.009995 -0.247929 153 0 76
-0.113196 0.011542 -0.073329 153 0 76
-0.339888 -0.001102 -0.070171 153 0 76
0.083702 0.016431 0.069964 153 0 76
-0.762555 0.015547 -0.219251 153 0 76
0.202160 0.000559 -0.108258 76 153 0
0.065374 0.016431 0.114904 153 0 76
0.446370 -0.001100 0.300343 76 0 153
0.331641 -0.006605 -0.203628 76 153 0
-0.135865 0.006790 0.059032 153 0 76
0.194561 -0.016796 -0.106330 76 153 0
0.316037 0.016431 0.241160 76 0 153
-0.011416 -0.016796 0.049510 0 127 127
0.522166 0.000558 -0.266593 76 153 0
-0.718663 -0.000134 0.214536 0 127 127
-0.441329 0.016431 -0.089941 153 0 76
-0.054072 0.000867 -0.017599 0 127 127
0.527930 0.002877 0.458413 76 0 153
-0.568435 -0.000116 0.185287 0 127 127
0.579222 0.003154 0.509053 76 0 153
0.493050 -0.001020 0.433736 76 0 153
-0.212956 -0.016791 0.116098 0 127 127
-0.167313 -0.001046 0.042247 153 0 76
-0.030300 0.000867 0.008602 0 127 127
0.439421 -0.016772 -0.241781 76 153 0
-0.411929 -0.001102 -0.129283 153 0 76
0.270335 -0.016796 -0.164527 76 153 0
0.699650 0.009062 0.430723 76 0 153
-0.242359 0.016431 -0.013818 153 0 76
0.412761 -0.016717 -0.192839 76 153 0
-0.535693 -0.001102 -0.169162 153 0 76
-0.419696 0.000867 0.099982 0 127 127
0.371598 0.015922 0.227820 76 0 153
-0.091116 -0.001102 0.047818 153 0 76
-0.253361 -0.001102 -0.074540 153 0 76
-0.398823 -0.001102 -0.068528 153 0 76
-0.522663 0.016431 -0.121055 153 0 76
-0.139484 0.000864 0.101515 0 127 127
-0.115631 0.014415 0.067159 153 0 76
0.311978 -0.005885 -0.145266 76 153 0
-0.477300 0.000331 0.141395 0 127 127
0.106951 0.016431 0.113665 76 0 153
-0.572774 -0.001102 -0.143257 153 0 76
0.702352 0.008392 0.472642 76 0 153
0.640652 -0.015531 -0.434155 76 153 0
-0.043513 0.000851 0.082414 0 127 127
-0.315216 0.000867 0.115533 0 127 127
-0.386159 0.015672 -0.048462 153 0 76
0.575903 -0.014232 -0.207933 76 153 0
-0.044129 0.004375 -0.054860 153 0 76
-0.284077 -0.016796 0.105743 0 127 127
-0.738836 -0.001087 -0.232277 153 0 76
-0.086042 -0.001102 -0.047146 153 0 76
-0.001341 -0.001102 0.014401 153 0 76
-0.855193 0.010266 -0.265739 153 0 76
0.108681 -0.016796 -0.052264 0 127 127
-0.331189 0.008897 -0.023427 153 0 76
0.183430 0.016431 0.184502 76 0 153
-0.493508 0.016431 -0.135498 153 0 76
0.502278 -0.011627 -0.225998 76 153 0
0.390933 -0.013287 -0.228408 76 153 0
-0.405115 -0.001102 -0.097172 153 0 76
-0.141477 -0.013486 -0.013642 0 127 127
0.022739 -0.016796 0.012775 0 127 127
-0.352842 0.004053 -0.032745 153 0 76
-0.605404 -0.016796 0.181099 0 127 127
-0.107778 0.000853 0.094645 0 127 127
-0.245277 0.000867 0.060890 0 127 127
-0.541579 -0.001102 -0.131027 153 0 76
0.026266 0.001519 -0.035334 153 0 76
-0.657934 -0.016795 0.210530 0 127 127
0.748192 -0.010450 -0.314744 76 153 0
-0.351967 -0.001102 -0.068595 153 0 76
0.497016 0.007860 0.475476 76 0 153
-0.383789 0.000862 0.081057 0 127 127
-0.442415 0.015929 -0.146259 153 0 76
0.516547 -0.015104 -0.350719 76 153 0
-0.232409 -0.001102 -0.057360 153 0 76
-0.010943 0.016431 0.091971 153 0 76
-0.331898 0.015975 -0.076165 153 0 76
-0.148511 -0.013237 -0.011535 0 127 127
-0.246287 0.011621 0.012385 153 0 76
0.879161 -0.011498 -0.454692 76 153 0
0.442429 0.016431 0.281974 76 0 153
0.438361 0.004343 0.348116 76 0 153
0.529592 0.015491 0.245935 76 0 153
0.773768 -0.016770 -0.396139 76 153 0
0.363898 0.000639 0.269766 76 0 153
-0.579209 -0.016753 0.148000 0 127 127
-0.395835 -0.001102 -0.080083 153 0 76
0.020958 0.016431 0.093936 153 0 76
0.431513 -0.000428 -0.197029 76 153 0
0.043653 0.016431 -0.019669 153 0 76
0.539406 0.009721 0.497572 76 0 153
0.636494 0.016227 0.501819 76 0 153
0.514781 0.015457 0.463350 76 0 153
-0.147279 -0.016795 0.102207 0 127 127
0.650329 -0.016784 -0.441229 76 153 0
-0.381574 0.000867 0.087388 0 127 127
0.835533 -0.008798 -0.417774 76 153 0
-0.567926 -0.000080 0.137645 0 127 127
0.051268 0.000832 -0.007269 0 127 127
-0.154099 0.016431 -0.062339 153 0 76
-0.743132 -0.003354 0.237757 0 127 127
-0.223327 0.000867 0.098296 0 127 127
0.772632 0.000666 -0.400840 76 153 0
-0.587789 -0.012887 0.141830 0 127 127
0.345008 -0.001102 0.222899 76 0 153
0.448281 0.000476 -0.207033 76 153 0
0.752000 -0.010456 -0.333294 76 153 0
-0.035517 0.000867 0.050696 0 127 127
0.644557 -0.001095 0.286963 76 0 153
0.556786 -0.015185 -0.393687 76 153 0
-0.314584 0.015614 -0.071458 153 0 76
0.023189 -0.001102 0.073984 153 0 76
-0.045986 -0.001001 0.093663 153 0 76
-0.801312 -0.005614 0.249795 0 127 127
0.105993 0.000867 -0.015115 0 127 127
0.718485 -0.001102 0.380174 76 0 153
-0.286544 -0.016794 0.132105 0 127 127
-0.067002 0.011023 0.088132 153 0 76
0.130878 0.000185 0.082439 76 0 153
0.051344 0.016431 0.124437 153 0 76
0.069922 0.016431 0.064008 153 0 76
-0.342711 0.014489 -0.133214 153 0 76
-0.849723 -0.016629 0.238689 0 127 127
-0.121414 -0.001102 -0.052147 153 0 76
-0.298628 -0.004430 0.041001 0 127 127
0.759467 0.000805 -0.305113 76 153 0
0.266672 -0.016796 -0.156801 76 153 0
-0.677522 -0.002365 0.223177 0 127 127
0.071495 -0.016795 0.053598 0 127 127
0.076104 0.000401 -0.085352 0 127 127
0.739364 -0.014057 -0.275734 76 153 0
0.158644 0.016431 0.132351 76 0 153
0.035173 -0.016796 -0.020630 0 127 127
-0.289828 -0.001102 -0.016516 153 0 76
-0.057133 -0.016796 0.018773 0 127 127
-0.404661 0.000867 0.123850 0 127 127
-0.310579 0.000867 0.059832 0 127 127
0.053472 0.000867 0.052728 0 127 127
0.683693 0.016388 0.298848 76 0 153
0.876344 -0.016512 -0.428868 76 153 0
0.181309 0.000866 -0.084930 76 153 0
0.289579 0.003041 0.180994 76 0 153
0.623357 -0.001102 0.493841 76 0 153
0.489949 -0.014157 -0.221383 76 153 0
0.483646 0.015409 0.266090 76 0 153
-0.632706 -0.016796 0.176428 0 127 127
-0.007338 0.016431 0.037600 153 0 76
0.145386 -0.000834 0.101959 76 0 153
0.753915 0.000684 -0.320293 76 153 0
-0.065076 -0.016796 0.029909 0 127 127
0.474006 -0.016354 -0.259996 76 153 0
0.035366 -0.016796 -0.026503 0 127 127
0.455937 -0.009723 -0.256067 76 153 0
-0.112772 0.006107 0.068661 153 0 76
-0.133850 -0.001102 -0.043467 153 0 76
0.053579 -0.012094 -0.085978 0 127 127
-0.670383 0.016431 -0.191745 153 0 76
-0.826543 -0.001398 0.225548 0 127 127
-0.246551 0.002753 -0.108914 153 0 76
0.901121 -0.016399 -0.465106 76 153 0
-0.133759 -0.001102 -0.035445 153 0 76
0.406852 -0.001102 0.260860 76 0 153
0.469124 0.016430 0.317671 76 0 153
-0.078166 -0.016796 0.037986 0 127 127
0.640935 -0.016783 -0.206570 76 153 0
0.393865 0.000866 -0.191286 76 153 0
0.596560 -0.009443 -0.449554 76 153 0
-0.775286 0.000371 0.215846 0 127 127
0.582278 0.000436 -0.214354 76 153 0
-0.124223 -0.016796 0.001488 0 127 127
0.244820 0.000226 -0.124667 76 153 0
0.023237 0.016431 0.115903 153 0 76
-0.526788 0.016431 -0.162145 153 0 76
-0.392799 -0.001102 -0.135180 153 0 76
0.509469 0.000308 -0.262184 76 153 0
0.749627 -0.005814 -0.363411 76 153 0
-0.259839 -0.016796 0.071986 0 127 127
0.792398 -0.009452 -0.405866 76 153 0
-0.567444 0.016431 -0.176324 153 0 76
-0.137396 0.000867 0.040695 0 127 127
0.451389 0.016431 0.364844 76 0 153
-0.195050 0.000867 0.097295 0 127 127
-0.146423 0.016431 -0.069036 153 0 76
-0.160038 -0.012166 -0.007445 0 127 127
0.718407 0.006081 0.455501 76 0 153
0.463073 0.015191 0.430014 76 0 153
0.239211 -0.010819 -0.164522 76 153 0
0.735004 0.000834 -0.259938 76 153 0
0.205682 0.007799 0.136424 76 0 153
-0.341201 0.005596 -0.027729 153 0 76
-0.532017 -0.016796 0.174633 0 127 127
0.786155 -0.015161 -0.389801 76 153 0
-0.098909 -0.001102 -0.050888 153 0 76
-0.039031 -0.016771 0.082097 0 127 127
-0.153484 0.000867 0.012305 0 127 127
-0.379020 -0.016796 0.107819 0 127 127
-0.275794 -0.016796 0.080100 0 127 127
0.064178 -0.016796 0.003071 0 127 127
-0.104854 -0.016545 -0.021637 0 127 127
-0.747774 -0.001102 -0.210013 153 0 76
-0.169675 0.000867 0.097912 0 127 127
-0.037600 -0.016796 -0.025471 0 127 127
-0.132120 -0.016796 0.077249 0 127 127
-0.212723 -0.000071 -0.098228 153 0 76
0.344598 0.000867 -0.184528 76 153 0
-0.393764 -0.004349 0.163186 0 127 127
-0.511909 -0.011996 0.188515 0 127 127
-0.083936 0.016431 -0.019683 153 0 76
0.393408 -0.001102 0.257376 76 0 153
-0.014868 -0.016796 -0.015177 0 127 127
0.183920 -0.005629 -0.141166 76 153 0
-0.240913 -0.001102 -0.024779 153 0 76
-0.198411 -0.016796 0.018443 0 127 127
0.015400 -0.001102 0.097903 153 0 76
0.038200 0.000867 0.006678 0 127 127
0.079685 0.016431 -0.005541 153 0 76
0.508585 -0.014900 -0.330995 76 153 0
0.157907 -0.000189 -0.127011 76 153 0
-0.615412 -0.000719 -0.147087 153 0 76
-0.064968 0.000867 0.014533 0 127 127
-0.769022 -0.006795 0.204931 0 127 127
0.660320 -0.001102 0.482073 76 0 153
-0.268481 0.015536 -0.053677 153 0 76
-0.665512 0.016353 -0.214517 153 0 76
-0.530654 -0.007670 0.121747 0 127 127
-0.561856 0.016054 -0.123331 153 0 76
-0.579191 -0.001093 -0.192084 153 0 76
-0.086520 0.016431 -0.059620 153 0 76
0.242354 -0.003361 -0.110395 76 153 0
-0.205909 -0.000678 0.122194 0 127 127
0.037835 -0.016796 0.035502 0 127 127
0.826391 -0.012632 -0.414372 76 153 0
-0.118197 -0.016796 0.066710 0 127 127
0.459403 -0.016795 -0.244312 76 153 0
0.067772 -0.001102 0.119359 153 0 76
0.332814 -0.016757 -0.159813 76 153 0
0.388711 0.016431 0.249331 76 0 153
-0.706869 -0.016770 0.223361 0 127 127
-0.071540 -0.000758 -0.037820 0 127 127
-0.711772 0.016394 -0.188399 153 0 76
-0.164213 -0.001102 -0.002229 153 0 76
0.107658 0.016431 0.073796 153 0 76
-0.086740 -0.001102 0.039871 153 0 76
0.176439 -0.000081 -0.113904 76 153 0
-0.087038 0.016431 0.071567 153 0 76
0.112305 -0.011697 0.015951 0 127 127
0.061524 0.016431 0.031516 153 0 76
0.577716 0.005049 0.483525 76 0 153
0.707507 -0.001099 0.363568 76 0 153
0.425632 -0.004501 -0.193273 76 153 0
0.159760 -0.001102 0.129737 76 0 153
0.445318 -0.016790 -0.240710 76 153 0
0.514023 0.015931 0.453368 76 0 153
-0.183087 0.016431 -0.034122 153 0 76
-0.506366 -0.016796 0.139197 0 127 127
0.007694 -0.016796 -0.011776 0 127 127
-0.383734 -0.016796 0.096879 0 127 127
0.651362 0.011997 0.262834 76 0 153
0.580708 0.000526 -0.422442 76 153 0
0.395554 0.000867 -0.206491 76 153 0
0.144861 -0.001102 0.131578 76 0 153
-0.011693 0.011654 -0.046058 153 0 76
0.349490 0.010283 0.264459 76 0 153
0.708750 0.015725 0.437994 76 0 153
0.097118 -0.001102 -0.007654 153 0 76
-0.192476 -0.007225 0.003747 0 127 127
-0.295743 -0.001102 -0.026497 153 0 76
0.549281 -0.016651 -0.408773 76 153 0
0.548527 -0.006451 -0.294545 76 153 0
-0.608971 0.003817 -0.205422 153 0 76
-0.111929 0.016431 0.014313 153 0 76
-0.376396 0.015860 -0.114975 153 0 76
-0.362452 0.000867 0.124922 0 127 127
-0.148070 0.016431 -0.016814 153 0 76
0.640773 -0.005666 -0.433644 76 153 0
-0.463982 0.000594 0.102757 0 127 127
0.529999 -0.001075 0.264022 76 0 153
-0.703179 0.016229 -0.185394 153 0 76
0.745232 -0.016665 -0.261125 76 153 0
-0.666929 0.000112 0.182581 0 127 127
-0.002540 -0.016796 0.022372 0 127 127
-0.064876 0.009023 -0.060569 153 0 76
-0.571842 -0.006161 0.201427 0 127 127
-0.090040 -0.001102 -0.027672 153 0 76
-0.221725 -0.016796 0.042178 0 127 127
0.078534 0.016431 0.009890 153 0 76
0.535387 0.014816 0.244265 76 0 153
0.353139 -0.016180 -0.209036 76 153 0
-0.169328 0.016431 -0.036021 153 0 76
-0.220059 0.001224 -0.101665 153 0 76
-0.765518 -0.000441 0.240905 0 127 127
0.692073 0.006584 0.343911 76 0 153
0.832035 0.000185 -0.398464 76 153 0
-0.358336 -0.000522 0.063542 0 127 127
-0.058685 -0.001102 0.036726 153 0 76
0.054007 -0.001102 0.033815 153 0 76
0.280798 -0.001087 0.230546 76 0 153
-0.841333 -0.001102 -0.249647 153 0 76
0.584938 -0.016112 -0.444644 76 153 0
-0.219027 0.016431 -0.076533 153 0 76
-0.032542 -0.016796 -0.016182 0 127 127
-0.177286 -0.016796 0.061907 0 127 127
-0.319100 0.015430 -0.121560 153 0 76
-0.895295 0.013955 -0.262649 153 0 76
-0.365699 -0.015851 0.155222 0 127 127
-0.308968 -0.016796 0.061508 0 127 127
-0.296243 0.015604 -0.118378 153 0 76
0.483480 -0.001102 0.449133 76 0 153
-0.291760 0.000826 0.044332 0 127 127
-0.254540 0.016431 -0.024418 153 0 76
0.548626 -0.016796 -0.256474 76 153 0
0.260878 0.000076 -0.156437 76 153 0
-0.498571 -0.016796 0.154846 0 127 127
-0.060994 -0.001102 0.081201 153 0 76
-0.049113 -0.016796 0.007745 0 127 127
-0.260132 -0.010533 0.027402 0 127 127
0.773031 -0.005913 -0.358328 76 153 0
0.721853 -0.001080 -0.236744 76 153 0
-0.165139 -0.016796 0.100553 0 127 127
-0.658510 0.016431 -0.191964 153 0 76
-0.438924 0.000108 -0.070532 153 0 76
0.636007 -0.000424 -0.456852 76 153 0
0.650042 0.007387 0.502654 76 0 153
0.146831 0.000867 -0.086911 76 153 0
-0.085273 0.016431 0.014034 153 0 76
-0.492570 0.015937 -0.168710 153 0 76
-0.027444 0.016431 0.011419 153 0 76
-0.882892 -0.016572 0.249206 0 127 127
0.686163 0.005210 0.331345 76 0 153
0.139022 -0.001102 0.143828 76 0 153
-0.089375 0.000867 -0.001721 0 127 127
0.289993 0.000720 -0.181236 76 153 0
0.647019 -0.000730 0.481373 76 0 153
-0.116175 0.000867 0.076562 0 127 127
-0.121701 -0.001102 0.046220 153 0 76
0.498873 -0.007035 -0.224792 76 153 0
-0.046485 0.000867 0.010179 0 127 127
-0.401695 0.015392 -0.147138 153 0 76
-0.908546 0.008073 -0.278743 153 0 76
-0.237035 0.011192 -0.106526 153 0 76
0.019057 -0.011329 0.075366 0 127 127
0.539182 -0.000677 0.245681 76 0 153
-0.036149 -0.001102 0.009058 153 0 76
0.044537 0.016431 0.002856 153 0 76
-0.349248 -0.001102 -0.116268 153 0 76
0.405124 -0.001102 0.266992 76 0 153
0.476880 0.001694 0.407575 76 0 153
-0.592555 -0.016796 0.180174 0 127 127
-0.411998 0.012911 -0.153132 153 0 76
-0.015088 -0.001102 0.029550 153 0 76
0.717455 0.008202 0.350630 76 0 153
0.523393 0.015855 0.467100 76 0 153
0.099442 0.000866 0.034214 0 127 127
-0.141164 0.016431 0.038612 153 0 76
0.873700 -0.006152 -0.416267 76 153 0
0.034557 0.000660 -0.028400 0 127 127
0.444011 0.013168 0.307129 76 0 153
0.019244 0.014350 0.124079 153 0 76
0.092182 0.001170 0.155024 153 0 76
-0.777955 -0.016796 0.226557 0 127 127
0.704255 -0.001093 0.332269 76 0 153
-0.657430 -0.002379 0.218716 0 127 127
0.180990 -0.016402 -0.135632 76 153 0
-0.288586 0.000867 0.125359 0 127 127
0.045897 0.014325 0.135611 153 0 76
-0.071270 0.016431 -0.018201 153 0 76
-0.117048 0.016431 -0.040813 153 0 76
0.744056 -0.010805 -0.375940 76 153 0
0.227434 0.016325 0.152582 76 0 153
0.405470 0.000833 -0.191442 76 153 0
-0.087622 0.016431 0.064926 153 0 76
-0.636447 -0.016796 0.188955 0 127 127
-0.184103 -0.016796 0.100413 0 127 127
-0.660105 -0.016796 0.202184 0 127 127
0.553712 -0.001102 0.247556 76 0 153
0.485092 0.010218 0.464898 76 0 153
-0.003478 -0.016753 0.075277 0 127 127
-0.284699 -0.001102 -0.047755 153 0 76
-0.023656 -0.000063 -0.053306 0 127 127
-0.338681 0.000861 0.064374 0 127 127
0.153306 0.000220 -0.056158 76 153 0
-0.520197 -0.001102 -0.174141 153 0 76
0.088964 -0.001102 0.012176 153 0 76
0.291169 0.016428 0.234176 76 0 153
0.716015 -0.006878 -0.254948 76 153 0
0.630594 -0.003268 -0.456632 76 153 0
-0.053960 -0.003767 0.090860 0 127 127
-0.063111 -0.016796 0.039380 0 127 127
0.270603 0.016431 0.185204 76 0 153
0.376871 0.012120 0.226999 76 0 153
-0.405870 -0.016796 0.092022 0 127 127
0.392392 0.010680 0.235178 76 0 153
-0.481914 -0.000649 0.181018 0 127 127
0.541747 -0.002597 -0.310382 76 153 0
0.650201 -0.004800 -0.460402 76 153 0
0.630150 -0.016753 -0.210044 76 153 0
-0.568403 0.016431 -0.153781 153 0 76
-0.161651 -0.016796 0.060387 0 127 127
0.545510 -0.016779 -0.380057 76 153 0
0.087612 -0.001102 0.106639 153 0 76
-0.049734 -0.016796 0.074468 0 127 127
0.333774 -0.001102 0.235328 76 0 153
-0.442526 0.000867 0.147669 0 127 127
0.113047 0.016431 0.081326 153 0 76
0.761228 0.000866 -0.318742 76 153 0
-0.070747 0.015022 0.086066 153 0 76
0.563083 -0.007992 -0.402376 76 153 0
-0.166863 0.000867 0.049795 0 127 127
-0.168211 0.000867 0.071735 0 127 127
-0.361233 0.015928 -0.121775 153 0 76
-0.661272 -0.000060 0.169614 0 127 127
0.368995 0.016431 0.264423 76 0 153
0.403106 -0.002189 -0.184157 76 153 0
-0.142044 0.016431 -0.011663 153 0 76
-0.619106 -0.009284 0.211479 0 127 127
-0.721490 -0.001056 -0.229777 153 0 76
-0.145437 -0.001102 -0.033304 153 0 76
0.611214 0.011954 0.274007 76 0 153
0.534849 0.000234 -0.340516 76 153 0
-0.169045 -0.001070 0.114629 0 127 127
-0.487849 -0.000133 0.151208 0 127 127
0.707411 0.000616 -0.236827 76 153 0
-0.184483 -0.016796 0.042963 0 127 127
0.111728 0.014666 0.000348 153 0 76
-0.509676 -0.016796 0.156005 0 127 127
0.704464 0.015620 0.449394 76 0 153
0.067652 -0.001102 0.019435 153 0 76
-0.064325 -0.016796 0.054451 0 127 127
0.321195 0.000867 -0.179714 76 153 0
-0.330485 -0.016796 0.124880 0 127 127
0.484122 -0.000158 0.460686 76 0 153
0.665228 -0.016767 -0.450709 76 153 0
-0.584628 -0.000133 0.169284 0 127 127
-0.084585 -0.001102 0.008006 153 0 76
0.210448 -0.013780 -0.152087 76 153 0
-0.744680 0.014995 -0.237139 153 0 76
0.069277 -0.016793 -0.078676 0 127 127
-0.735341 0.000380 0.200065 0 127 127
0.056216 -0.001102 0.046659 153 0 76
-0.439034 0.012916 -0.160403 153 0 76
0.441070 0.015345 0.354548 76 0 153
0.661892 -0.016749 -0.210596 76 153 0
-0.348663 -0.016796 0.141289 0 127 127
0.066374 -0.001102 0.055132 153 0 76
-0.414314 -0.016795 0.158443 0 127 127
-0.553598 0.000122 0.192518 0 127 127
-0.848416 -0.004316 0.259651 0 127 127
0.554633 -0.001099 0.498865 76 0 153
-0.631353 -0.014177 0.213127 0 127 127
-0.078160 -0.001102 -0.028592 153 0 76
-0.405475 0.000856 0.086064 0 127 127
-0.285230 0.016431 -0.023573 153 0 76
-0.312056 -0.016796 0.115319 0 127 127
0.764657 -0.016486 -0.311324 76 153 0
0.015939 -0.000093 -0.068792 0 127 127
0.453335 0.000648 -0.221454 76 153 0
0.074378 -0.001102 0.000511 153 0 76
0.510216 -0.008185 -0.279528 76 153 0
0.481265 -0.016764 -0.223660 76 153 0
-0.811698 0.014943 -0.228061 153 0 76
0.358771 -0.016669 -0.209142 76 153 0
0.046329 -0.001102 0.012327 153 0 76
-0.130547 0.000867 0.060027 0 127 127
0.659854 0.013088 0.271445 76 0 153
-0.224285 0.000867 0.075917 0 127 127
0.722475 0.013124 0.362111 76 0 153
-0.127087 -0.001102 0.042057 153 0 76
-0.059045 0.000867 0.009917 0 127 127
0.201221 0.012031 0.201495 76 0 153
0.577392 0.015961 0.490546 76 0 153
-0.195534 0.000867 0.038517 0 127 127
-0.099700 -0.001102 -0.032038 153 0 76
0.897591 -0.015208 -0.471603 76 153 0
-0.015993 -0.001102 0.045103 153 0 76
0.140400 0.016431 0.148551 76 0 153
-0.371841 -0.001102 -0.134453 153 0 76
-0.123239 0.016431 0.051485 153 0 76
-0.512791 0.004093 -0.180333 153 0 76
-0.514129 -0.002363 0.188150 0 127 127
0.284640 -0.001102 0.221798 76 0 153
-0.178407 -0.001099 0.035475 153 0 76
0.615397 -0.012762 -0.225126 76 153 0
-0.216226 -0.001102 0.013915 153 0 76
0.049736 0.000101 -0.040017 0 127 127
0.722881 0.000659 -0.252218 76 153 0
0.318602 -0.001102 0.232194 76 0 153
0.484094 0.000661 -0.260373 76 153 0
0.307607 -0.001102 0.232875 76 0 153
-0.150311 -0.016796 0.020558 0 127 127
-0.214546 0.000867 0.047862 0 127 127
0.554877 0.016195 0.254410 76 0 153
-0.755661 -0.000226 0.236648 0 127 127
0.112999 0.000199 -0.092033 76 153 0
-0.810817 -0.016767 0.230806 0 127 127
-0.459810 0.016431 -0.117138 153 0 76
-0.265687 -0.001100 -0.106730 153 0 76
0.072597 -0.016796 0.047076 0 127 127
0.064959 0.016431 0.056536 153 0 76
0.108910 -0.006351 0.031178 0 127 127
-0.005619 0.000824 -0.055186 0 127 127
0.135556 -0.016796 -0.076524 76 153 0
-0.556738 -0.001102 -0.183311 153 0 76
-0.305504 -0.001102 -0.073012 153 0 76
0.015638 0.016431 0.018566 153 0 76
-0.057239 0.007496 0.092250 153 0 76
-0.078216 0.016431 0.064691 153 0 76
-0.062730 0.016431 -0.039563 153 0 76
-0.272856 -0.001102 -0.062815 153 0 76
0.637697 0.013733 0.483367 76 0 153
-0.371203 -0.001102 -0.070335 153 0 76
-0.061918 -0.001054 0.087496 153 0 76
0.036025 0.016431 0.034183 153 0 76
0.623478 -0.001102 0.499382 76 0 153
0.438217 -0.016761 -0.205106 76 153 0
-0.400373 0.000867 0.099065 0 127 127
0.659167 0.015445 0.475278 76 0 153
0.298435 0.000767 -0.183874 76 153 0
-0.168598 -0.001102 0.008187 153 0 76
0.097348 0.016431 0.141183 76 0 153
-0.556266 0.000259 0.137039 0 127 127
0.586130 0.000884 0.266850 76 0 153
0.036126 -0.001102 0.094818 153 0 76
-0.151032 -0.016796 0.064924 0 127 127
0.110743 -0.001102 0.071199 153 0 76
-0.568000 0.010010 -0.123752 153 0 76
-0.165409 -0.016692 0.001125 0 127 127
-0.051500 0.016417 -0.049705 153 0 76
0.207094 0.002516 0.137298 76 0 153
0.382808 0.000460 0.277597 76 0 153
-0.596130 0.013831 -0.135981 153 0 76
-0.095270 0.016431 0.015807 153 0 76
-0.408337 -0.001101 -0.063229 153 0 76
0.065682 -0.016796 -0.073114 0 127 127
-0.576447 -0.000133 0.166413 0 127 127
-0.153725 -0.001102 -0.072141 153 0 76
0.295468 0.016209 0.192973 76 0 153
0.301981 -0.001100 0.237786 76 0 153
-0.163196 0.016431 0.031095 153 0 76
-0.277888 -0.001102 -0.100406 153 0 76
0.504698 -0.015483 -0.275508 76 153 0
0.062840 -0.005419 0.066192 0 127 127
0.286594 0.000867 -0.156256 76 153 0
0.183820 0.016431 0.170283 76 0 153
0.025311 0.012956 0.126900 153 0 76
0.133080 -0.000134 -0.053858 76 153 0
-0.197882 0.003231 0.032619 153 0 76
-0.508107 0.008769 -0.098334 153 0 76
0.341954 -0.001102 0.242515 76 0 153
-0.755847 -0.016796 0.215048 0 127 127
0.885186 -0.016759 -0.438494 76 153 0
0.580199 -0.009556 -0.416580 76 153 0
-0.386198 -0.000366 0.159985 0 127 127
0.456880 -0.001102 0.403866 76 0 153
-0.685820 -0.001102 -0.209992 153 0 76
0.114253 -0.016796 -0.078053 76 153 0
-0.119381 -0.016796 0.011593 0 127 127
0.227325 -0.001102 0.179154 76 0 153
0.105457 -0.001102 0.088381 153 0 76
-0.097515 -0.001102 0.041646 153 0 76
0.651095 -0.001070 0.492651 76 0 153
-0.077722 -0.016796 0.020495 0 127 127
0.242949 0.016431 0.186660 76 0 153
-0.131498 -0.001102 -0.027458 153 0 76
0.688592 -0.016795 -0.431601 76 153 0
-0.131005 -0.012643 -0.017626 0 127 127
0.071695 -0.016796 -0.067192 0 127 127
0.352941 -0.016796 -0.180141 76 153 0
0.739709 -0.012086 -0.423347 76 153 0
0.507470 0.004588 0.480917 76 0 153
-0.063035 -0.001102 -0.019119 153 0 76
-0.335392 -0.016796 0.110518 0 127 127
0.250614 -0.015793 -0.118127 76 153 0
-0.209532 -0.001091 -0.093134 153 0 76
0.753269 -0.016796 -0.404041 76 153 0
-0.419022 -0.004571 0.168731 0 127 127
0.125770 -0.000119 -0.047064 76 153 0
-0.102441 0.016431 -0.024143 153 0 76
-0.368337 0.000867 0.148275 0 127 127
0.725365 0.001989 0.428045 76 0 153
-0.268524 -0.001102 -0.011755 153 0 76
0.342686 0.003976 0.208922 76 0 153
-0.913088 0.000699 0.267867 0 127 127
0.236907 -0.001102 0.204033 76 0 153
0.107859 0.016344 0.051099 153 0 76
-0.093299 0.003620 -0.068129 153 0 76
0.103621 0.015831 0.158319 76 0 153
0.089595 -0.002184 0.059881 0 127 127
0.068896 -0.016796 0.039312 0 127 127
0.022570 -0.016796 -0.053846 0 127 127
0.880700 -0.005190 -0.424977 76 153 0
0.523035 -0.016795 -0.274666 76 153 0
0.233476 0.000469 -0.115668 76 153 0
-0.645878 -0.001102 -0.190429 153 0 76
0.491144 0.016415 0.462519 76 0 153
0.426323 0.016420 0.292771 76 0 153
-0.015505 -0.016796 -0.004668 0 127 127
0.630843 0.016431 0.264834 76 0 153
-0.715761 0.016431 -0.194769 153 0 76
-0.357579 0.009517 -0.138907 153 0 76
0.212451 -0.016540 -0.147581 76 153 0
0.616737 -0.016773 -0.195817 76 153 0
-0.131833 -0.016796 0.047939 0 127 127
0.229730 0.011038 0.213639 76 0 153
0.728204 -0.015518 -0.408009 76 153 0
-0.090812 -0.001102 0.012470 153 0 76
-0.377510 0.015670 -0.139684 153 0 76
0.034419 0.016431 0.069381 153 0 76
-0.491844 0.003787 -0.091613 153 0 76
-0.909652 -0.016745 0.263482 0 127 127
-0.668054 -0.006129 0.169741 0 127 127
-0.872688 -0.016788 0.251910 0 127 127
0.159529 0.013844 0.108599 76 0 153
-0.478623 0.016120 -0.158784 153 0 76
-0.108687 -0.001102 0.001423 153 0 76
0.561581 0.000233 -0.230940 76 153 0
-0.839020 -0.016294 0.256118 0 127 127
0.675969 -0.001686 -0.232988 76 153 0
-0.328403 -0.001102 -0.056840 153 0 76
0.151515 0.016429 0.173010 76 0 153
0.482170 -0.001102 0.438107 76 0 153
-0.393486 0.000867 0.140661 0 127 127
0.120434 -0.011155 -0.018444 0 127 127
0.311908 -0.001102 0.224233 76 0 153
-0.514784 -0.016628 0.122717 0 127 127
0.060387 0.000867 0.024401 0 127 127
-0.037749 0.016431 -0.023666 153 0 76
0.597290 0.000403 0.243542 76 0 153
0.037035 0.016300 -0.027964 153 0 76
-0.344729 0.016431 -0.063495 153 0 76
-0.619533 -0.001102 -0.182313 153 0 76
0.034079 0.016431 0.084242 153 0 76
0.496690 -0.001160 -0.224259 76 153 0
0.003547 -0.016796 -0.023225 0 127 127
-0.757767 0.011124 -0.204454 153 0 76
0.067678 -0.001102 0.037447 153 0 76
0.033260 -0.016796 0.029269 0 127 127
-0.099254 0.009257 0.074499 153 0 76
0.165407 0.016431 0.156020 76 0 153
-0.439889 -0.001102 -0.151932 153 0 76
-0.431631 0.000867 0.152271 0 127 127
-0.134428 0.000867 0.068379 0 127 127
-0.123597 0.011830 0.063955 153 0 76
-0.611636 -0.001102 -0.178578 153 0 76
0.164154 -0.001067 0.183013 76 0 153
0.470893 0.007276 0.398596 76 0 153
-0.792300 0.000349 0.244149 0 127 127
0.552230 -0.010787 -0.285002 76 153 0
0.702709 -0.016450 -0.419897 76 153 0
-0.403323 -0.000409 0.164362 0 127 127
0.059375 -0.001102 0.080440 153 0 76
0.900919 0.000825 -0.462619 76 153 0
-0.428339 0.016335 -0.117074 153 0 76
-0.072568 -0.016796 0.009047 0 127 127
-0.858356 -0.002799 0.261710 0 127 127
0.463603 0.016225 0.325973 76 0 153
0.508479 0.015801 0.472794 76 0 153
0.014795 -0.001102 0.065587 153 0 76
-0.161433 0.016431 -0.022676 153 0 76
-0.586946 -0.001102 -0.171049 153 0 76
-0.406034 0.016193 -0.124017 153 0 76
-0.434542 -0.008488 0.172088 0 127 127
0.136711 0.014610 0.173642 76 0 153
-0.343503 0.015809 -0.108605 153 0 76
-0.512747 0.002151 -0.100854 153 0 76
-0.653239 -0.000133 0.200336 0 127 127
0.355307 0.000802 -0.204006 76 153 0
0.697065 0.016184 0.457890 76 0 153
-0.361911 0.000867 0.098144 0 127 127
0.203542 -0.007852 -0.149505 76 153 0
-0.413432 -0.003587 0.081056 0 127 127
0.159869 -0.016796 -0.069305 76 153 0
0.674415 0.010947 0.286456 76 0 153
-0.229543 -0.001102 -0.023825 153 0 76
-0.080529 -0.001102 -0.038715 153 0 76
-0.326717 0.015580 -0.079317 153 0 76
-0.001919 -0.006826 0.079931 0 127 127
0.667261 0.015530 0.478227 76 0 153
-0.390978 0.016431 -0.090836 153 0 76
-0.103770 0.000867 0.069706 0 127 127
0.222008 -0.001102 0.199382 76 0 153
0.305538 0.000867 -0.169272 76 153 0
-0.076762 -0.016796 -0.014720 0 127 127
0.523897 -0.001096 0.482436 76 0 153
-0.789265 -0.000709 -0.221216 153 0 76
-0.097841 0.016312 -0.063399 153 0 76
-0.645153 -0.001102 -0.177253 153 0 76
0.129700 0.012869 0.171277 76 0 153
0.474351 0.014907 0.326344 76 0 153
0.706364 -0.001102 0.347314 76 0 153
0.315667 0.000774 -0.151545 76 153 0
0.672796 -0.013710 -0.429256 76 153 0
-0.543331 -0.000011 0.190281 0 127 127
0.116818 0.016267 0.065261 153 0 76
0.462451 -0.001102 0.303309 76 0 153
-0.766908 0.006830 -0.208252 153 0 76
-0.884727 -0.016745 0.254608 0 127 127
-0.121275 -0.016796 0.086527 0 127 127
-0.132400 0.016431 0.037831 153 0 76
0.324158 -0.001102 0.230912 76 0 153
-0.070575 -0.016796 0.048295 0 127 127
-0.480617 0.000858 0.114079 0 127 127
0.188652 -0.015146 -0.076485 76 153 0
-0.245757 0.015562 -0.086301 153 0 76
-0.585382 -0.001102 -0.183239 153 0 76
0.707342 -0.016771 -0.232355 76 153 0
-0.039483 -0.016796 0.071158 0 127 127
0.535998 -0.016754 -0.394022 76 153 0
0.889039 -0.011681 -0.467489 76 153 0
-0.109193 0.001982 -0.071683 153 0 76
0.077095 -0.016789 0.055230 0 127 127
0.766287 -0.006103 -0.411706 76 153 0
0.272095 -0.001102 0.223586 76 0 153
0.393307 0.009362 0.282925 76 0 153
0.279478 0.016431 0.205948 76 0 153
-0.422969 -0.001102 -0.138795 153 0 76
-0.636022 0.016431 -0.188414 153 0 76
-0.249525 -0.016796 0.056822 0 127 127
0.642170 0.016090 0.265905 76 0 153
-0.226567 -0.001102 -0.082166 153 0 76
-0.021915 -0.016796 -0.015191 0 127 127
0.399369 0.016431 0.266922 76 0 153
0.700261 -0.006702 -0.218705 76 153 0
-0.559318 0.000110 0.145070 0 127 127
0.021238 0.016431 -0.004682 153 0 76
-0.305455 -0.016796 0.101983 0 127 127
0.071663 0.000299 -0.074393 0 127 127
0.068277 -0.001102 0.099962 153 0 76
-0.333621 -0.016562 0.057176 0 127 127
0.726246 0.011884 0.381196 76 0 153
-0.220437 -0.016796 0.068963 0 127 127
0.098334 -0.000016 -0.015504 153 0 76
-0.279769 0.013576 -0.117173 153 0 76
0.161895 -0.000217 -0.130736 76 153 0
0.469435 0.000543 -0.231790 76 153 0
0.009928 0.016431 0.065450 153 0 76
-0.272455 -0.001102 -0.024972 153 0 76
0.575959 -0.000998 0.502546 76 0 153
-0.727622 -0.001255 0.191960 0 127 127
-0.486526 0.011923 -0.089365 153 0 76
0.729118 0.000650 -0.258807 76 153 0
-0.935015 -0.000161 0.265697 0 127 127
0.661128 -0.016796 -0.445340 76 153 0
-0.380446 -0.001102 -0.123141 153 0 76
-0.411069 -0.016796 0.129071 0 127 127
-0.285830 -0.016796 0.062048 0 127 127
0.613465 0.016431 0.499508 76 0 153
0.248767 0.014652 0.159891 76 0 153
0.116382 -0.016796 -0.054929 0 127 127
-0.869592 -0.016791 0.256648 0 127 127
-0.259441 -0.016796 0.079718 0 127 127
-0.014437 0.011613 0.110452 153 0 76
0.580435 -0.016796 -0.225456 76 153 0
0.560239 0.000400 -0.422700 76 153 0
-0.614610 -0.005573 0.210323 0 127 127
0.351397 -0.001102 0.253976 76 0 153
-0.171189 -0.016796 0.088022 0 127 127
-0.403483 0.016431 -0.076525 153 0 76
0.157483 -0.016796 -0.117199 76 153 0
-0.217962 -0.000191 0.124235 0 127 127
-0.313198 -0.001102 -0.114300 153 0 76
-0.624267 0.007990 -0.209303 153 0 76
-0.220007 0.016431 -0.083253 153 0 76
0.749874 0.000427 -0.412350 76 153 0
-0.241777 -0.016796 0.035209 0 127 127
-0.301148 -0.016796 0.110598 0 127 127
0.647452 -0.001102 0.280424 76 0 153
0.475431 0.006036 0.268504 76 0 153
0.022307 -0.016169 -0.069218 0 127 127
0.708899 0.004962 0.382321 76 0 153
0.876526 -0.016754 -0.437290 76 153 0
-0.058492 -0.001102 -0.040979 153 0 76
-0.008243 0.009149 0.113004 153 0 76
-0.224157 -0.001102 -0.061083 153 0 76
0.302545 -0.016796 -0.174356 76 153 0
0.118001 -0.001102 0.141542 76 0 153
0.018872 0.016431 -0.011662 153 0 76
-0.111950 -0.016796 0.080225 0 127 127
0.029224 -0.008609 0.073413 0 127 127
-0.744793 -0.001102 -0.229051 153 0 76
0.097776 0.016431 0.003788 153 0 76
0.736378 -0.016777 -0.255664 76 153 0
-0.614580 -0.001102 -0.193645 153 0 76
-0.344800 -0.016779 0.066720 0 127 127
0.144355 0.007970 0.096572 76 0 153
0.483311 0.005543 0.415568 76 0 153
0.351763 -0.016795 -0.172817 76 153 0
-0.040689 0.000867 0.049045 0 127 127
-0.397407 0.000843 0.082536 0 127 127
0.063312 -0.001102 0.048950 153 0 76
0.683166 -0.001102 0.303693 76 0 153
0.645066 -0.000263 -0.435052 76 153 0
0.465165 -0.001102 0.331763 76 0 153
-0.724231 0.015588 -0.231270 153 0 76
-0.064935 -0.001102 0.063301 153 0 76
0.102871 -0.001102 0.082156 153 0 76
-0.321897 -0.001102 -0.037900 153 0 76
-0.550218 -0.016796 0.158049 0 127 127
-0.628798 -0.001102 -0.183594 153 0 76
0.449552 -0.001082 0.388168 76 0 153
0.711024 0.009488 0.465175 76 0 153
0.041160 0.013938 -0.031248 153 0 76
0.700243 0.016054 0.319306 76 0 153
-0.577227 -0.001102 -0.178153 153 0 76
0.002539 -0.001102 0.097996 153 0 76
-0.472663 -0.005707 0.101575 0 127 127
0.588181 0.007415 0.510193 76 0 153
-0.327851 0.000867 0.109806 0 127 127
-0.151315 0.000867 0.058540 0 127 127
0.314726 0.000867 -0.174976 76 153 0
-0.878288 0.016077 -0.261367 153 0 76
0.666394 -0.000255 0.493529 76 0 153
-0.322914 -0.016796 0.120144 0 127 127
-0.435269 -0.001102 -0.122415 153 0 76
0.599825 0.016162 0.503385 76 0 153
0.456409 -0.001102 0.348551 76 0 153
0.602068 0.000867 -0.205825 76 153 0
-0.092754 0.015115 -0.066161 153 0 76
-0.575378 0.016431 -0.190710 153 0 76
-0.178279 -0.000368 -0.088674 153 0 76
-0.660277 -0.000133 0.190567 0 127 127
-0.339035 -0.001102 -0.115459 153 0 76
-0.397895 -0.001102 -0.093531 153 0 76
-0.176895 0.014009 -0.089796 153 0 76
-0.846706 0.012988 -0.242344 153 0 76
-0.652534 -0.000133 0.189742 0 127 127
0.758596 -0.016613 -0.280077 76 153 0
0.591220 0.000857 -0.208128 76 153 0
-0.062426 0.016431 0.027511 153 0 76
0.037933 0.002809 -0.032811 153 0 76
-0.387809 -0.001102 -0.063971 153 0 76
-0.600568 0.016431 -0.147939 153 0 76
-0.017437 -0.001097 -0.042170 153 0 76
-0.139717 -0.001102 -0.023194 153 0 76
0.006339 -0.001102 -0.011979 153 0 76
-0.073903 0.016431 0.048511 153 0 76
-0.287682 -0.016796 0.087812 0 127 127
0.513018 -0.015779 -0.340199 76 153 0
0.676951 0.000619 0.459734 76 0 153
-0.275931 -0.016796 0.127051 0 127 127
-0.141550 -0.001097 0.050606 153 0 76
0.110056 0.016431 0.124203 76 0 153
-0.602815 0.001995 -0.138832 153 0 76
-0.187015 -0.016796 0.022110 0 127 127
-0.043061 0.003243 0.098006 153 0 76
-0.292703 -0.002737 0.141418 0 127 127
-0.024534 -0.010945 -0.054839 0 127 127
-0.366484 -0.002939 0.156910 0 127 127
0.498692 0.001787 0.436480 76 0 153
-0.136625 0.016431 -0.036499 153 0 76
0.666973 0.000574 -0.436735 76 153 0
0.408003 -0.001102 0.277929 76 0 153
0.384262 -0.015528 -0.224334 76 153 0
0.675562 0.009545 0.459435 76 0 153
-0.741483 0.016311 -0.232319 153 0 76
0.097841 -0.016747 0.042215 0 127 127
-0.109975 -0.014765 0.102644 0 127 127
0.210279 -0.008187 -0.089523 76 153 0
0.768148 -0.003184 -0.380992 76 153 0
0.389887 0.000867 -0.213782 76 153 0
-0.003224 0.000867 -0.004343 0 127 127
0.425883 -0.001102 0.287428 76 0 153
-0.308685 0.014471 -0.124482 153 0 76
-0.468613 -0.015508 0.177478 0 127 127
-0.181012 0.016397 0.036695 153 0 76
-0.456297 0.015226 -0.162918 153 0 76
0.774520 -0.006079 -0.340430 76 153 0
-0.446534 0.002829 -0.162438 153 0 76
0.541155 0.000492 -0.374928 76 153 0
-0.143676 -0.016796 0.006474 0 127 127
0.003736 0.016431 -0.010888 153 0 76
0.524937 0.000308 -0.350642 76 153 0
0.106347 -0.000134 -0.071541 76 153 0
-0.280121 -0.001102 -0.092298 153 0 76
-0.926850 -0.004390 0.276308 0 127 127
0.282407 0.016431 0.188755 76 0 153
-0.290974 0.015430 -0.105640 153 0 76
0.045127 0.016431 0.118256 153 0 76
0.113225 0.004239 0.013984 153 0 76
0.018285 0.016431 0.101817 153 0 76
0.570143 0.014823 0.240632 76 0 153
0.677075 -0.000983 0.487258 76 0 153
0.724017 0.014349 0.432507 76 0 153
0.492238 0.000821 -0.227044 76 153 0
0.485581 0.016419 0.456458 76 0 153
0.053997 0.016431 0.028594 153 0 76
-0.504618 -0.001102 -0.135790 153 0 76
-0.126011 0.000867 0.012201 0 127 127
-0.133561 0.016431 0.047543 153 0 76
0.070806 -0.001102 0.066023 153 0 76
0.684859 0.000867 -0.223884 76 153 0
-0.027623 -0.001102 -0.013444 153 0 76
0.444027 -0.015918 -0.204880 76 153 0
0.582467 0.014017 0.266104 76 0 153
0.550681 0.004437 0.241081 76 0 153
0.623348 -0.009280 -0.431967 76 153 0
-0.373500 0.000867 0.104655 0 127 127
0.348879 0.000867 -0.196424 76 153 0
-0.769435 0.015431 -0.227399 153 0 76
0.215834 -0.000018 -0.137155 76 153 0
-0.039729 -0.016796 0.026037 0 127 127
0.075328 0.000867 -0.034991 0 127 127
-0.426998 -0.012102 0.170177 0 127 127
-0.411909 -0.016754 0.090867 0 127 127
-0.539117 0.016431 -0.167069 153 0 76
-0.016602 -0.001102 0.096612 153 0 76
-0.662592 -0.001096 -0.169328 153 0 76
-0.311965 -0.016796 0.085773 0 127 127
-0.349241 -0.016796 0.103366 0 127 127
-0.715946 -0.003279 0.186680 0 127 127
-0.062263 -0.001102 0.074644 153 0 76
-0.752591 0.016294 -0.208001 153 0 76
-0.417447 -0.001098 -0.065353 153 0 76
-0.507654 -0.001102 -0.120602 153 0 76
0.452843 0.015930 0.329265 76 0 153
0.401729 -0.009134 -0.183135 76 153 0
0.096901 0.016431 0.082604 153 0 76
-0.019998 0.000867 -0.024564 0 127 127
-0.867181 -0.000617 0.262971 0 127 127
-0.703492 -0.003390 0.182286 0 127 127
0.083261 -0.001102 0.031800 153 0 76
-0.302364 0.000854 0.136235 0 127 127
0.683537 0.000294 -0.428406 76 153 0
-0.020833 0.006028 -0.048727 153 0 76
-0.544254 0.016431 -0.125377 153 0 76
0.424253 0.016431 0.274179 76 0 153
0.442334 0.012087 0.375390 76 0 153
0.232772 0.016431 0.183019 76 0 153
-0.392588 0.016400 -0.052887 153 0 76
0.359929 -0.001102 0.254517 76 0 153
0.559251 0.000165 -0.244912 76 153 0
0.032861 0.016431 -0.021300 153 0 76
0.503959 -0.016796 -0.244785 76 153 0
-0.321678 -0.016770 0.140914 0 127 127
0.392685 0.016431 0.261188 76 0 153
0.631948 0.015784 0.506122 76 0 153
-0.076178 0.016431 0.024079 153 0 76
0.686145 0.010531 0.487472 76 0 153
0.848220 -0.016715 -0.415083 76 153 0
0.282766 0.010086 0.236233 76 0 153
0.493516 -0.001086 0.278565 76 0 153
0.333948 -0.001102 0.243544 76 0 153
0.867635 -0.016667 -0.429088 76 153 0
0.115871 0.016431 0.089037 76 0 153
0.142365 -0.001102 0.168922 76 0 153
0.051893 -0.001102 0.025637 153 0 76
0.273738 0.016431 0.205202 76 0 153
-0.943005 -0.011698 0.279841 0 127 127
0.237425 -0.001102 0.181531 76 0 153
-0.758013 -0.016018 0.204390 0 127 127
-0.719977 -0.016522 0.192390 0 127 127
-0.321984 0.004884 -0.019625 153 0 76
0.728306 0.002544 0.417842 76 0 153
0.469468 -0.004134 -0.212145 76 153 0
-0.059299 -0.013156 -0.042578 0 127 127
-0.618329 -0.016796 0.194520 0 127 127
-0.875124 -0.001097 -0.260222 153 0 76
-0.593784 -0.016796 0.164617 0 127 127
0.101816 -0.001102 0.072255 153 0 76
-0.407740 0.002128 -0.056351 153 0 76
0.113742 -0.001101 0.157478 76 0 153
0.607008 0.000459 0.510692 76 0 153
0.520523 -0.016796 -0.325267 76 153 0
0.597327 0.000065 -0.446258 76 153 0
0.424667 0.000907 0.252677 76 0 153
0.544168 -0.015464 -0.303366 76 153 0
0.168493 -0.014748 -0.062847 76 153 0
-0.696583 0.016431 -0.194897 153 0 76
-0.182433 -0.001102 -0.070800 153 0 76
-0.190920 0.016431 -0.062030 153 0 76
0.532888 0.000866 -0.313479 76 153 0
0.104545 -0.004895 0.049889 0 127 127
0.079472 -0.016796 -0.024834 0 127 127
-0.087615 -0.016664 -0.026130 0 127 127
0.438389 0.003779 0.342794 76 0 153
0.059717 0.000563 -0.030879 0 127 127
0.134474 -0.001102 0.135002 76 0 153
0.019301 -0.001102 0.094069 153 0 76
0.246293 -0.016783 -0.122646 76 153 0
0.020571 0.016431 -0.026515 153 0 76
0.025645 -0.016796 -0.040725 0 127 127
-0.789258 -0.015906 0.214894 0 127 127
-0.456386 0.016431 -0.085822 153 0 76
-0.465995 -0.016796 0.163165 0 127 127
-0.302726 0.000867 0.066893 0 127 127
-0.749068 0.005471 -0.239697 153 0 76
0.801015 -0.014637 -0.386847 76 153 0
0.274771 -0.009263 -0.129668 76 153 0
0.085737 0.016431 0.054376 153 0 76
-0.072134 -0.016796 0.060710 0 127 127
0.082868 0.016431 0.059568 153 0 76
-0.045323 -0.016796 0.001289 0 127 127
0.513414 -0.001094 0.456731 76 0 153
-0.557651 0.016431 -0.151406 153 0 76
0.627840 -0.006502 -0.218366 76 153 0
-0.561261 -0.000120 0.153223 0 127 127
0.100946 -0.016792 0.023375 0 127 127
0.454059 0.000576 -0.232854 76 153 0
-0.223686 -0.016796 0.076538 0 127 127
0.490239 0.015663 0.286164 76 0 153
0.668912 -0.015000 -0.230033 76 153 0
0.489925 -0.001102 0.446699 76 0 153
-0.110006 0.000827 -0.019103 0 127 127
0.119286 0.016431 0.146661 76 0 153
0.369270 -0.016718 -0.211897 76 153 0
-0.124302 -0.002541 -0.019399 0 127 127
-0.467836 -0.016796 0.138761 0 127 127
0.726553 0.013615 0.399287 76 0 153
0.383569 -0.001102 0.254079 76 0 153
0.133527 -0.001102 0.153879 76 0 153
0.719828 0.015801 0.411182 76 0 153
0.236416 0.000021 -0.126877 76 153 0
0.181087 0.016431 0.137331 76 0 153
-0.371328 -0.016796 0.094818 0 127 127
0.018450 -0.001102 0.035958 153 0 76
-0.102655 -0.001102 0.024767 153 0 76
-0.369416 -0.001102 -0.127599 153 0 76
-0.884830 -0.008650 0.245336 0 127 127
-0.264734 -0.000353 0.030945 0 127 127
0.451268 0.016207 0.318084 76 0 153
-0.135112 -0.016796 0.057781 0 127 127
-0.023044 0.016431 -0.024605 153 0 76
-0.238959 -0.016796 0.099134 0 127 127
0.566762 -0.016703 -0.248271 76 153 0
0.634626 0.015538 0.254284 76 0 153
-0.186476 0.000867 0.107494 0 127 127
0.744592 -0.011174 -0.297209 76 153 0
0.434734 0.000867 -0.233410 76 153 0
-0.228319 0.015761 -0.101264 153 0 76
-0.602408 -0.016796 0.167222 0 127 127
0.439666 0.005485 0.357893 76 0 153
-0.031948 0.016431 0.066205 153 0 76
-0.624052 0.000135 0.165965 0 127 127
-0.209971 0.016431 -0.004579 153 0 76
0.314370 0.000024 -0.193004 76 153 0
0.263351 -0.001077 0.224368 76 0 153
0.467628 -0.001092 0.321310 76 0 153
0.816099 -0.011387 -0.410734 76 153 0
0.500513 0.009236 0.438732 76 0 153
0.224655 -0.016791 -0.149480 76 153 0
0.360743 0.000841 -0.176148 76 153 0
0.242936 -0.001099 0.212562 76 0 153
0.658158 0.002228 0.269650 76 0 153
0.204211 0.016431 0.167722 76 0 153
-0.695635 -0.001102 -0.203461 153 0 76
-0.445185 -0.016796 0.153190 0 127 127
-0.345244 -0.001102 -0.100591 153 0 76
-0.509028 0.016431 -0.142746 153 0 76
0.116367 -0.002327 -0.001403 0 127 127
-0.137137 0.016431 -0.025785 153 0 76
0.108844 0.016411 0.056363 153 0 76
0.130063 0.016431 0.122244 76 0 153
0.008833 0.000234 -0.063595 0 127 127
0.372266 -0.001102 0.238350 76 0 153
-0.342119 -0.015969 0.058062 0 127 127
-0.218356 0.000867 0.055041 0 127 127
-0.503767 -0.001093 -0.100587 153 0 76
0.086760 0.016431 0.041182 153 0 76
0.419326 0.016431 0.261543 76 0 153
0.623754 -0.008559 -0.455347 76 153 0
-0.004670 0.015415 0.113431 153 0 76
0.448408 0.000867 -0.213281 76 153 0
0.739445 -0.016770 -0.260388 76 153 0
0.855150 -0.013473 -0.405360 76 153 0
-0.148209 -0.016796 0.080115 0 127 127
-0.155261 0.000867 0.064555 0 127 127
-0.122355 0.000847 0.098966 0 127 127
-0.231837 -0.000452 0.016039 153 0 76
-0.640898 -0.016667 0.167094 0 127 127
-0.540512 -0.016796 0.143551 0 127 127
-0.469994 0.016431 -0.108382 153 0 76
-0.047335 0.015370 0.095297 153 0 76
0.689951 0.010698 0.338827 76 0 153
-0.369961 -0.000576 0.067963 0 127 127
0.399967 -0.001102 0.257688 76 0 153
0.197300 -0.016796 -0.120138 76 153 0
0.096259 -0.001102 0.137865 76 0 153
0.006995 -0.001102 0.025208 153 0 76
0.444790 0.016262 0.324332 76 0 153
0.461841 0.014362 0.375672 76 0 153
-0.263727 -0.001102 -0.060700 153 0 76
-0.351186 -0.001102 -0.111322 153 0 76
0.081519 0.016431 0.021018 153 0 76
-0.371080 0.015810 -0.096263 153 0 76
-0.009038 0.016431 0.023185 153 0 76
0.408203 0.016431 0.273374 76 0 153
-0.213226 -0.016796 0.105306 0 127 127
0.131647 -0.016795 -0.108210 76 153 0
0.002755 -0.001102 0.004900 153 0 76
0.079420 0.005119 -0.021885 153 0 76
0.109006 -0.016785 -0.006247 0 127 127
-0.069125 -0.016796 0.066633 0 127 127
-0.267050 -0.016796 0.064643 0 127 127
-0.112944 0.000867 0.060513 0 127 127
-0.071892 0.016431 0.066277 153 0 76
0.101385 0.016431 0.134792 76 0 153
-0.684757 -0.016678 0.182570 0 127 127
-0.551201 0.007678 -0.116522 153 0 76
0.385060 -0.003923 -0.176038 76 153 0
-0.495796 0.000206 0.177364 0 127 127
0.105224 -0.001094 0.026171 153 0 76
-0.655181 0.010413 -0.161048 153 0 76
0.358206 -0.011933 -0.164687 76 153 0
-0.904506 -0.016248 0.256281 0 127 127
0.160707 -0.001102 0.162082 76 0 153
0.304971 -0.001101 0.198306 76 0 153
0.277384 0.012051 0.233926 76 0 153
0.185502 -0.001060 0.131591 76 0 153
-0.440653 0.000867 0.105994 0 127 127
-0.329166 -0.016796 0.087771 0 127 127
0.729096 -0.001198 -0.243148 76 153 0
0.475061 -0.000065 0.321553 76 0 153
0.295278 -0.001097 0.192905 76 0 153
0.358103 -0.016796 -0.196199 76 153 0
-0.390061 0.015328 -0.144380 153 0 76
-0.287793 -0.003130 0.037342 0 127 127
-0.159827 -0.001102 -0.055405 153 0 76
-0.411832 0.000867 0.151246 0 127 127
-0.207881 0.000867 0.097577 0 127 127
0.194842 -0.000134 -0.119953 76 153 0
-0.825059 0.015547 -0.246086 153 0 76
0.034024 0.016431 0.054412 153 0 76
