ply
format ascii 1.0
element vertex 1258
property float x
property float y
property float z
property uchar red
property uchar green
property uchar blue
end_header
0.112466 -0.000150 -0.090376 76 153 0
-0.834984 -0.000150 0.240188 0 127 127
-0.201494 0.010102 -0.096172 153 0 76
0.401020 0.015186 0.240794 76 0 153
0.165168 -0.000150 0.155691 76 0 153
-0.037371 0.015479 0.085491 153 0 76
0.728158 -0.000150 -0.242946 76 153 0
0.680776 -0.000150 0.322757 76 0 153
0.650731 -0.014080 -0.435056 76 153 0
0.597222 0.015479 0.498223 76 0 153
0.312693 0.015479 0.196446 76 0 153
0.044069 -0.015779 0.026038 0 127 127
0.515197 -0.000150 -0.291402 76 153 0
-0.249885 -0.015779 0.091867 0 127 127
-0.468360 0.015479 -0.167586 153 0 76
0.490330 -0.000150 0.284386 76 0 153
0.026616 -0.000150 -0.026379 0 127 127
0.718223 0.015479 0.442081 76 0 153
0.276264 -0.015779 -0.179134 76 153 0
0.701754 0.015479 0.342553 76 0 153
-0.231391 0.015479 -0.088914 153 0 76
-0.223695 -0.015779 0.102052 0 127 127
-0.053574 0.015479 0.025475 153 0 76
0.549240 0.015479 0.476136 76 0 153
0.486284 0.015479 0.432347 76 0 153
-0.050646 -0.015779 -0.041374 0 127 127
-0.314675 -0.015779 0.113988 0 127 127
0.052539 0.015479 -0.027479 153 0 76
-0.296116 -0.000150 0.121183 0 127 127
-0.300754 0.015479 -0.013904 153 0 76
-0.566169 0.015479 -0.140187 153 0 76
-0.795170 0.015479 -0.249309 153 0 76
0.369393 -0.000150 -0.198141 76 153 0
0.151841 -0.000345 -0.126594 76 153 0
-0.207701 -0.000150 -0.069016 153 0 76
-0.142347 0.015479 0.042937 153 0 76
-0.064152 -0.015779 0.009973 0 127 127
0.399684 -0.000065 0.285056 76 0 153
-0.596857 -0.000150 0.186183 0 127 127
-0.132963 -0.000150 0.076493 0 127 127
-0.631979 -0.000150 0.201739 0 127 127
0.761044 -0.015779 -0.350844 76 153 0
0.129722 -0.000150 0.106982 76 0 153
-0.141428 -0.000150 -0.062549 153 0 76
0.514703 0.015455 0.247847 76 0 153
0.015629 -0.003960 0.075560 0 127 127
0.147792 0.015479 0.150099 76 0 153
0.185650 -0.015779 -0.083526 76 153 0
0.130613 -0.015779 -0.059157 76 153 0
-0.006407 -0.000150 0.029360 0 127 127
-0.628494 -0.000150 -0.189187 153 0 76
-0.210788 -0.000150 -0.031493 153 0 76
-0.298240 -0.000150 -0.086692 153 0 76
0.523157 -0.015779 -0.366037 76 153 0
0.129573 -0.000150 0.140515 76 0 153
-0.147949 0.015479 0.008513 153 0 76
0.066127 -0.015779 -0.082585 0 127 127
-0.662319 0.015479 -0.210016 153 0 76
-0.239900 -0.000150 0.119307 0 127 127
-0.005155 -0.015779 0.057325 0 127 127
-0.054225 -0.015779 0.037771 0 127 127
-0.527798 -0.015779 0.179829 0 127 127
0.005914 0.015479 0.088844 153 0 76
-0.179303 0.015479 -0.006738 153 0 76
0.115068 -0.000150 0.116091 76 0 153
-0.226156 -0.015779 0.072016 0 127 127
-0.563321 -0.015779 0.134587 0 127 127
0.697411 -0.015779 -0.428189 76 153 0
-0.285743 -0.015779 0.123748 0 127 127
-0.325193 0.015479 -0.089103 153 0 76
0.546608 0.015479 0.249385 76 0 153
0.715725 -0.001184 -0.231943 76 153 0
-0.400436 0.015479 -0.104247 153 0 76
-0.170520 -0.000150 0.001718 153 0 76
-0.947679 -0.012403 0.268337 0 127 127
0.248109 -0.000150 0.220539 76 0 153
-0.526057 -0.000150 -0.130339 153 0 76
0.375415 -0.001731 -0.172863 76 153 0
-0.647062 0.015479 -0.188408 153 0 76
-0.395437 -0.000885 0.075625 0 127 127
0.059022 -0.000150 0.123157 153 0 76
-0.546976 0.015479 -0.131396 153 0 76
0.749773 -0.015779 -0.280924 76 153 0
-0.873496 -0.000150 -0.258020 153 0 76
-0.080453 -0.000150 -0.038813 153 0 76
-0.051653 0.015479 -0.010396 153 0 76
-0.403833 -0.000150 -0.090664 153 0 76
-0.296877 -0.000150 0.073319 0 127 127
-0.328386 -0.000150 -0.023274 153 0 76
-0.011533 -0.015779 -0.008921 0 127 127
0.530976 -0.015779 -0.293620 76 153 0
0.118687 -0.015779 -0.023286 0 127 127
0.724795 0.015479 0.372109 76 0 153
0.168611 -0.000150 -0.072456 76 153 0
-0.859197 -0.000150 -0.249139 153 0 76
-0.646189 0.015479 -0.160875 153 0 76
0.756123 -0.000150 -0.337969 76 153 0
0.258608 0.015479 0.180259 76 0 153
0.661678 -0.000150 0.287435 76 0 153
0.191952 -0.000150 -0.125328 76 153 0
0.550382 0.000949 0.502080 76 0 153
0.128695 0.015479 0.119371 76 0 153
-0.082829 0.015479 0.064615 153 0 76
-0.784474 -0.015779 0.213144 0 127 127
0.282732 0.015479 0.217785 76 0 153
-0.349164 -0.015749 0.153099 0 127 127
0.524306 -0.015779 -0.309956 76 153 0
0.116780 0.015479 0.138555 76 0 153
-0.499872 -0.015779 0.167997 0 127 127
-0.070851 -0.000150 0.044854 0 127 127
-0.030714 -0.000150 -0.001108 0 127 127
-0.178171 0.015479 -0.089767 153 0 76
-0.094707 -0.000150 0.046812 153 0 76
-0.031304 0.015479 0.051430 153 0 76
0.070030 0.015479 0.024807 153 0 76
-0.485868 -0.000150 -0.153587 153 0 76
-0.057728 0.015479 0.045721 153 0 76
-0.432550 -0.000150 0.165731 0 127 127
0.537605 0.000623 0.243182 76 0 153
0.677613 -0.015779 -0.224713 76 153 0
-0.756858 0.015479 -0.223566 153 0 76
0.531131 -0.000150 -0.323529 76 153 0
0.282968 -0.000150 -0.163466 76 153 0
-0.409865 -0.004930 0.166001 0 127 127
-0.353671 0.015479 -0.129197 153 0 76
-0.159141 0.015479 -0.055851 153 0 76
0.090786 -0.015779 0.039463 0 127 127
0.710299 -0.000150 0.355588 76 0 153
-0.012218 -0.015779 0.041906 0 127 127
0.576924 -0.014896 -0.415145 76 153 0
0.108710 -0.000150 -0.058546 0 127 127
-0.377922 -0.000150 0.156796 0 127 127
0.103622 -0.000150 0.026893 153 0 76
0.706624 -0.015779 -0.242080 76 153 0
-0.081052 0.014783 -0.063940 153 0 76
-0.123653 -0.011589 0.105165 0 127 127
-0.487647 -0.015779 0.137376 0 127 127
-0.174160 -0.000150 -0.073152 153 0 76
-0.799472 -0.000150 0.229341 0 127 127
-0.013114 0.014587 -0.045760 153 0 76
0.323735 -0.000150 -0.167432 76 153 0
0.112287 -0.000549 -0.109887 76 153 0
-0.496429 -0.000150 0.150950 0 127 127
-0.139072 -0.000150 -0.008698 0 127 127
0.382980 0.015479 0.268681 76 0 153
-0.018109 0.015479 -0.013796 153 0 76
-0.079653 -0.015779 0.056824 0 127 127
-0.191504 -0.015779 0.004479 0 127 127
-0.125006 -0.000150 -0.019128 0 127 127
-0.273925 -0.000150 0.135040 0 127 127
-0.449094 0.015479 -0.157806 153 0 76
-0.116262 -0.000150 -0.060886 153 0 76
0.222562 -0.000150 -0.136967 76 153 0
-0.399725 -0.000150 -0.118575 153 0 76
-0.239410 0.000480 0.014470 153 0 76
-0.616272 0.015479 -0.206219 153 0 76
0.494925 -0.000150 -0.240826 76 153 0
-0.307726 -0.000150 0.144091 0 127 127
0.095629 0.015479 0.153395 76 0 153
0.720278 0.015479 0.403505 76 0 153
-0.041885 -0.000150 0.031753 153 0 76
-0.127306 0.015479 0.007189 153 0 76
0.570018 -0.006993 -0.211026 76 153 0
0.484686 0.013990 0.292619 76 0 153
0.432084 -0.015779 -0.229935 76 153 0
0.457292 0.015479 0.339232 76 0 153
0.119008 -0.000209 -0.016550 0 127 127
0.050247 0.015479 0.078360 153 0 76
-0.506881 0.015479 -0.147968 153 0 76
-0.266908 -0.015779 0.119689 0 127 127
-0.819311 -0.000150 0.250271 0 127 127
0.327213 0.015479 0.215314 76 0 153
0.005538 0.015479 -0.028769 153 0 76
0.205485 -0.014470 -0.149253 76 153 0
-0.578645 0.015479 -0.172502 153 0 76
0.172986 -0.015779 -0.116775 76 153 0
-0.164988 -0.015779 0.021617 0 127 127
0.006524 -0.015779 -0.019206 0 127 127
0.109208 -0.015779 -0.071037 76 153 0
-0.329431 -0.000150 0.082387 0 127 127
-0.774351 0.014646 -0.245030 153 0 76
-0.128710 -0.000150 0.053452 153 0 76
0.459325 0.015479 0.421603 76 0 153
0.209421 -0.000150 0.197595 76 0 153
-0.782578 -0.015779 0.245156 0 127 127
0.414578 -0.015779 -0.202916 76 153 0
-0.156915 -0.000150 0.042789 0 127 127
0.273483 0.015479 0.189238 76 0 153
-0.019874 -0.000150 0.019471 0 127 127
0.574666 -0.000150 -0.434431 76 153 0
-0.337329 -0.000150 -0.129902 153 0 76
0.530701 -0.001374 -0.390815 76 153 0
0.617785 -0.015779 -0.204306 76 153 0
-0.509473 0.015479 -0.174443 153 0 76
-0.480099 -0.015779 0.166995 0 127 127
-0.239950 -0.015779 0.104588 0 127 127
0.083686 -0.000150 0.001659 0 127 127
0.049679 -0.000150 -0.016573 153 0 76
-0.517220 -0.003244 0.188820 0 127 127
0.008636 -0.000150 0.054152 153 0 76
-0.302737 -0.000150 -0.123217 153 0 76
-0.221933 -0.015779 0.021255 0 127 127
-0.155490 -0.000150 -0.031418 153 0 76
-0.511063 0.015479 -0.121357 153 0 76
0.004982 0.015479 0.013378 153 0 76
0.551577 -0.015779 -0.391770 76 153 0
-0.315723 -0.000150 -0.072474 153 0 76
0.718507 -0.000150 -0.413324 76 153 0
-0.814998 -0.015779 0.235227 0 127 127
-0.053542 0.015479 0.074843 153 0 76
0.439562 -0.000150 0.350858 76 0 153
-0.727371 -0.000150 0.201376 0 127 127
0.172315 -0.000150 0.119627 76 0 153
0.231034 0.015479 0.198298 76 0 153
-0.023768 -0.015779 -0.019935 0 127 127
-0.758327 -0.015090 0.240069 0 127 127
0.106761 -0.000150 0.161002 76 0 153
0.094149 -0.015779 0.019672 0 127 127
-0.486718 0.015479 -0.091707 153 0 76
-0.600139 -0.000150 0.204253 0 127 127
-0.078316 -0.000150 -0.007214 0 127 127
0.479399 0.015479 0.448600 76 0 153
0.573629 -0.015779 -0.231441 76 153 0
-0.026238 0.015479 -0.031258 153 0 76
0.653369 -0.000150 0.491099 76 0 153
0.233388 -0.000150 0.212102 76 0 153
0.663378 -0.000150 -0.223497 76 153 0
0.021862 -0.015779 0.053540 0 127 127
-0.101001 0.015479 -0.040363 153 0 76
-0.060611 -0.000150 -0.057313 153 0 76
0.140078 -0.015779 -0.082893 76 153 0
-0.112318 0.015479 0.044878 153 0 76
-0.523529 0.002061 -0.105823 153 0 76
-0.556351 0.000291 -0.119720 153 0 76
0.205198 -0.000150 0.137478 76 0 153
-0.324200 -0.000150 0.114441 0 127 127
0.339498 -0.015779 -0.175033 76 153 0
0.178077 -0.015616 -0.069612 76 153 0
-0.270178 -0.000150 0.032003 0 127 127
-0.244315 -0.015663 0.130812 0 127 127
0.069542 -0.015779 -0.065237 0 127 127
-0.550662 0.015479 -0.167782 153 0 76
0.258062 -0.014574 -0.171461 76 153 0
0.822767 -0.000150 -0.403104 76 153 0
-0.912969 -0.015779 0.268383 0 127 127
-0.774511 -0.000150 0.209050 0 127 127
0.097298 0.015479 -0.012415 153 0 76
-0.269726 0.015479 -0.029449 153 0 76
0.352346 0.015479 0.262350 76 0 153
0.523328 0.013368 0.456871 76 0 153
-0.543443 -0.000150 0.184907 0 127 127
-0.311513 -0.015779 0.078054 0 127 127
-0.069379 0.015479 0.007991 153 0 76
-0.126146 -0.015779 0.020256 0 127 127
-0.188992 0.015479 -0.061882 153 0 76
-0.403527 -0.015779 0.138284 0 127 127
0.407426 0.015479 0.260241 76 0 153
0.458054 -0.015779 -0.224583 76 153 0
0.786082 -0.000150 -0.405604 76 153 0
0.366104 -0.000150 0.240985 76 0 153
-0.134527 0.015479 -0.022017 153 0 76
-0.637039 -0.015761 0.159936 0 127 127
0.719440 -0.000150 0.382575 76 0 153
0.137420 -0.000150 0.170067 76 0 153
0.201301 -0.015779 -0.134274 76 153 0
-0.180540 -0.000150 0.070808 0 127 127
0.038173 -0.000180 -0.078582 0 127 127
0.344541 -0.000150 -0.189792 76 153 0
0.046353 -0.015779 -0.003725 0 127 127
-0.685537 -0.000150 0.219368 0 127 127
0.851651 -0.000150 -0.420150 76 153 0
0.507351 -0.015779 -0.244440 76 153 0
0.064295 0.015479 -0.013977 153 0 76
-0.048771 -0.015779 0.082623 0 127 127
-0.035338 -0.000150 0.075147 153 0 76
-0.616455 0.015479 -0.181480 153 0 76
0.354040 -0.000150 0.216784 76 0 153
-0.857518 0.015479 -0.263166 153 0 76
0.349087 -0.015779 -0.207439 76 153 0
0.270410 -0.000150 0.172076 76 0 153
-0.857762 -0.015779 0.260961 0 127 127
0.397148 -0.000767 -0.182043 76 153 0
-0.223948 0.015479 -0.014811 153 0 76
-0.759646 -0.015779 0.221861 0 127 127
0.570231 0.015479 0.493845 76 0 153
-0.435415 -0.015779 0.125250 0 127 127
-0.658933 -0.000150 -0.201652 153 0 76
0.026726 -0.000150 0.111674 153 0 76
0.096806 0.015479 0.041906 153 0 76
-0.348026 -0.000150 -0.064486 153 0 76
0.307489 -0.000150 0.210741 76 0 153
-0.746293 0.000076 -0.238175 153 0 76
-0.349156 -0.015779 0.084472 0 127 127
0.891656 -0.015779 -0.457712 76 153 0
0.436197 -0.015516 -0.246705 76 153 0
-0.931623 -0.001917 0.276904 0 127 127
-0.385885 -0.000150 0.131764 0 127 127
-0.711141 0.002558 -0.229586 153 0 76
0.520845 0.002673 0.487177 76 0 153
-0.159295 -0.000150 0.096942 0 127 127
0.118856 0.015479 0.104761 76 0 153
-0.481971 -0.015363 0.105822 0 127 127
-0.207750 -0.000150 0.014529 0 127 127
0.034713 -0.015779 -0.034998 0 127 127
-0.884199 0.012814 -0.258528 153 0 76
-0.569370 -0.000150 0.198935 0 127 127
-0.209482 -0.015779 0.092139 0 127 127
-0.271904 -0.015779 0.070972 0 127 127
-0.221949 0.015479 -0.037392 153 0 76
-0.273112 -0.000150 0.098176 0 127 127
0.156785 -0.015779 -0.091774 76 153 0
-0.331807 -0.014878 0.053420 0 127 127
0.085367 -0.011689 0.060736 0 127 127
0.392258 -0.000150 0.259525 76 0 153
0.310236 0.015479 0.232681 76 0 153
-0.422087 -0.015779 0.152425 0 127 127
-0.475800 0.015479 -0.141118 153 0 76
-0.504094 -0.015779 0.114226 0 127 127
0.835971 -0.015779 -0.405939 76 153 0
-0.183525 -0.000150 -0.047442 153 0 76
0.718174 0.000375 0.453270 76 0 153
-0.613755 0.015479 -0.149721 153 0 76
-0.142169 -0.015779 0.091512 0 127 127
-0.238654 -0.000150 -0.012256 153 0 76
-0.040524 0.015479 0.017523 153 0 76
-0.667258 -0.000150 -0.167100 153 0 76
-0.120305 -0.015779 0.072241 0 127 127
0.110883 -0.000150 -0.002438 153 0 76
-0.399941 -0.000150 0.123558 0 127 127
-0.020860 -0.000150 0.091644 153 0 76
-0.252967 0.015479 -0.055681 153 0 76
0.538089 -0.015779 -0.339403 76 153 0
-0.456278 -0.000150 0.111370 0 127 127
0.691544 -0.000150 -0.226621 76 153 0
0.630736 -0.000150 -0.452204 76 153 0
-0.724495 0.014462 -0.190911 153 0 76
0.181808 -0.000150 0.183628 76 0 153
-0.494254 -0.000150 -0.137600 153 0 76
-0.649962 -0.000150 0.176364 0 127 127
0.127612 -0.000150 0.078476 153 0 76
0.236916 -0.000150 0.174560 76 0 153
-0.535042 -0.015779 0.145332 0 127 127
-0.452342 -0.015779 0.149629 0 127 127
0.476687 0.000278 0.318794 76 0 153
-0.351216 -0.000150 -0.034057 153 0 76
0.548118 -0.000150 0.486159 76 0 153
-0.246308 -0.000150 -0.093906 153 0 76
-0.368096 0.015479 -0.066511 153 0 76
0.564106 0.015410 0.479191 76 0 153
0.577885 -0.015034 -0.444464 76 153 0
0.493318 -0.015250 -0.270832 76 153 0
-0.371921 -0.015256 0.067419 0 127 127
0.470734 -0.000150 -0.232587 76 153 0
0.185191 0.015479 0.131756 76 0 153
-0.580360 -0.000150 -0.159607 153 0 76
-0.902167 -0.000150 -0.268644 153 0 76
0.031961 -0.000150 0.034449 153 0 76
-0.564791 0.015479 -0.192963 153 0 76
-0.101202 -0.015779 -0.023307 0 127 127
0.162284 -0.000150 -0.105415 76 153 0
-0.175937 -0.015779 0.091379 0 127 127
0.263284 -0.000150 0.202528 76 0 153
0.041213 0.015479 0.025509 153 0 76
0.609274 -0.000150 -0.222910 76 153 0
0.068101 0.015479 0.099433 153 0 76
-0.069704 -0.000150 0.024468 0 127 127
0.603980 -0.000150 0.270855 76 0 153
-0.005971 0.014327 0.113306 153 0 76
-0.597491 0.015479 -0.153377 153 0 76
-0.270632 0.015479 -0.114291 153 0 76
0.656204 0.014841 0.268670 76 0 153
-0.912783 -0.000150 0.256382 0 127 127
-0.072143 -0.000150 0.068507 153 0 76
-0.102701 0.015479 -0.068588 153 0 76
-0.608221 -0.000150 0.152970 0 127 127
-0.585547 -0.013958 0.203343 0 127 127
-0.243935 -0.015779 0.039474 0 127 127
-0.380578 0.011282 -0.144096 153 0 76
-0.500924 0.014104 -0.096253 153 0 76
-0.592634 0.015479 -0.200545 153 0 76
-0.077774 -0.013266 0.095413 0 127 127
0.019134 -0.015779 -0.008269 0 127 127
0.730394 -0.000150 -0.427792 76 153 0
0.404521 -0.015779 -0.230491 76 153 0
0.748743 -0.000150 -0.368842 76 153 0
-0.474444 -0.000150 0.134867 0 127 127
-0.354847 -0.015779 0.122230 0 127 127
-0.263771 -0.015779 0.085454 0 127 127
-0.537592 -0.000150 -0.114293 153 0 76
0.496825 0.015479 0.474397 76 0 153
-0.265339 -0.000150 0.068268 0 127 127
0.598979 -0.000150 -0.211763 76 153 0
0.712867 0.015479 0.428170 76 0 153
0.020276 -0.000150 0.012534 0 127 127
-0.168961 0.015479 -0.018057 153 0 76
0.359255 -0.015779 -0.183275 76 153 0
0.483836 0.015479 0.267072 76 0 153
-0.577080 -0.000150 -0.190386 153 0 76
-0.559938 -0.000150 0.149214 0 127 127
0.454778 0.015479 0.359157 76 0 153
-0.175908 -0.015779 0.032669 0 127 127
-0.112209 -0.000150 0.010102 153 0 76
0.342391 -0.000150 0.258064 76 0 153
-0.173568 0.015479 0.040624 153 0 76
0.645460 -0.000150 0.258131 76 0 153
-0.654405 -0.015779 0.203981 0 127 127
-0.152332 -0.000150 -0.075890 153 0 76
0.610361 -0.000150 0.510495 76 0 153
0.097444 0.015479 0.120921 76 0 153
-0.103624 -0.015779 0.026406 0 127 127
0.291254 -0.015779 -0.183169 76 153 0
0.399348 -0.015779 -0.198827 76 153 0
0.076568 -0.000150 -0.016886 0 127 127
-0.973639 -0.015440 0.284974 0 127 127
0.113071 -0.015779 -0.040036 0 127 127
0.484771 -0.015779 -0.240384 76 153 0
0.171581 0.015479 0.174331 76 0 153
0.522466 0.000812 0.270693 76 0 153
-0.475440 -0.008699 0.179939 0 127 127
-0.667045 0.015479 -0.179170 153 0 76
0.674693 -0.000150 -0.441559 76 153 0
-0.188707 -0.000150 0.039901 0 127 127
0.353095 -0.000150 -0.202652 76 153 0
0.103274 -0.000150 0.060659 153 0 76
0.063737 0.015479 0.067610 153 0 76
-0.120140 -0.000150 0.037644 0 127 127
0.726109 0.015479 0.387719 76 0 153
-0.094819 -0.015779 0.002884 0 127 127
0.470939 -0.000150 0.275363 76 0 153
0.089444 -0.000150 0.097671 153 0 76
-0.693899 0.015479 -0.182150 153 0 76
-0.160314 -0.000150 0.012430 0 127 127
-0.581056 -0.000150 0.144740 0 127 127
-0.566808 -0.015779 0.182477 0 127 127
-0.555126 -0.000150 -0.179259 153 0 76
-0.466103 -0.000150 -0.125119 153 0 76
0.274455 -0.015779 -0.162635 76 153 0
-0.289869 -0.000150 0.106690 0 127 127
-0.851069 -0.000150 0.250103 0 127 127
-0.377534 -0.015779 0.142805 0 127 127
0.047191 0.015479 0.046151 153 0 76
-0.418622 0.015479 -0.099488 153 0 76
-0.774834 -0.000150 0.225833 0 127 127
-0.242115 -0.015779 0.073713 0 127 127
0.630489 0.013440 0.484296 76 0 153
-0.273567 -0.000150 -0.049620 153 0 76
-0.113274 -0.015779 0.053301 0 127 127
-0.609213 -0.015779 0.165697 0 127 127
-0.448668 0.015479 -0.103779 153 0 76
0.546806 -0.015779 -0.249275 76 153 0
0.148259 0.015479 0.167258 76 0 153
-0.745478 -0.000150 0.225426 0 127 127
0.053087 -0.000150 0.101418 153 0 76
-0.101518 -0.000150 0.079891 0 127 127
0.159674 -0.000150 0.126935 76 0 153
0.055370 -0.000150 -0.072771 0 127 127
0.533337 0.015479 0.262534 76 0 153
0.059178 -0.000150 0.007130 0 127 127
0.538772 -0.000150 -0.236860 76 153 0
-0.636773 -0.000150 -0.174884 153 0 76
-0.693283 -0.000150 0.196166 0 127 127
0.308985 -0.000150 -0.184963 76 153 0
0.442700 0.015479 0.335852 76 0 153
-0.389275 -0.015779 0.116754 0 127 127
0.031478 -0.015779 0.018331 0 127 127
-0.073440 -0.015779 -0.033950 0 127 127
-0.913977 0.015479 -0.276711 153 0 76
-0.434605 -0.000150 0.151353 0 127 127
-0.446191 -0.000150 -0.148560 153 0 76
0.065871 -0.015779 -0.030098 0 127 127
0.001980 -0.012845 0.078461 0 127 127
-0.616123 -0.015779 0.204621 0 127 127
0.308959 -0.015779 -0.174911 76 153 0
0.383179 -0.000150 -0.202681 76 153 0
-0.785651 -0.000150 -0.232521 153 0 76
0.713756 -0.001949 -0.251871 76 153 0
-0.285152 -0.015468 0.139493 0 127 127
-0.073374 0.015479 -0.045618 153 0 76
0.058493 -0.015779 0.024796 0 127 127
0.667698 -0.015779 -0.438466 76 153 0
0.576864 -0.015779 -0.245539 76 153 0
-0.613625 -0.000150 -0.191016 153 0 76
-0.128222 0.015479 -0.055697 153 0 76
0.901717 -0.000263 -0.466491 76 153 0
0.496952 0.000448 0.257670 76 0 153
-0.850207 -0.015771 0.234323 0 127 127
0.544239 -0.000150 0.259640 76 0 153
0.052245 -0.000150 0.035682 153 0 76
-0.796389 -0.011717 0.248159 0 127 127
0.687605 0.001096 0.484923 76 0 153
-0.711513 -0.000150 0.199698 0 127 127
0.189633 -0.000150 0.164598 76 0 153
-0.083172 0.015479 0.031665 153 0 76
-0.542039 -0.000150 -0.153459 153 0 76
0.485454 0.001104 0.463776 76 0 153
-0.254526 0.015479 -0.106269 153 0 76
0.679706 -0.001483 -0.427355 76 153 0
0.415426 -0.000150 0.258518 76 0 153
0.229746 -0.015779 -0.146321 76 153 0
0.807630 -0.015779 -0.403694 76 153 0
0.356205 0.015479 0.240594 76 0 153
-0.275414 0.015479 -0.003041 153 0 76
0.525108 -0.015779 -0.244205 76 153 0
-0.150017 -0.000150 0.069631 0 127 127
0.337994 -0.000150 0.236422 76 0 153
-0.406779 -0.000150 -0.060244 153 0 76
-0.144759 -0.000150 0.098792 0 127 127
0.543104 -0.001233 -0.352668 76 153 0
-0.236810 -0.000150 0.055738 0 127 127
-0.336737 -0.015779 0.066854 0 127 127
-0.139227 -0.000150 0.022851 0 127 127
-0.513444 -0.000150 -0.157768 153 0 76
0.002671 -0.015779 0.020102 0 127 127
-0.265183 -0.000150 -0.098152 153 0 76
0.673274 -0.000150 0.462845 76 0 153
-0.646857 -0.000150 -0.210503 153 0 76
0.534923 -0.000150 -0.266952 76 153 0
-0.889799 0.013588 -0.273237 153 0 76
-0.807439 0.015479 -0.241960 153 0 76
-0.401123 0.014913 -0.053998 153 0 76
0.077220 -0.000150 -0.053203 0 127 127
-0.055698 -0.000150 0.000809 153 0 76
0.159901 0.015479 0.118077 76 0 153
-0.039002 0.015479 0.001301 153 0 76
-0.592522 0.015479 -0.182378 153 0 76
0.126877 -0.015779 -0.089313 76 153 0
-0.328348 -0.000150 -0.082693 153 0 76
0.557712 -0.000150 -0.219163 76 153 0
-0.790135 0.015479 -0.218782 153 0 76
0.443116 0.001361 0.263056 76 0 153
0.480735 0.002233 0.303670 76 0 153
0.137036 -0.000150 -0.075327 76 153 0
-0.199250 0.015479 -0.019318 153 0 76
0.713505 -0.015779 -0.430363 76 153 0
-0.489692 -0.000150 -0.106622 153 0 76
0.504986 0.015479 0.271442 76 0 153
-0.373563 -0.000150 0.123080 0 127 127
0.181163 -0.000150 -0.135736 76 153 0
-0.163649 0.014813 -0.086044 153 0 76
-0.022289 -0.000150 0.050790 0 127 127
0.303088 -0.000150 0.224277 76 0 153
0.254526 -0.015779 -0.129522 76 153 0
0.165588 -0.000150 0.180490 76 0 153
-0.345911 -0.000150 0.059504 0 127 127
0.326299 -0.015779 -0.185709 76 153 0
0.454823 -0.000150 0.323950 76 0 153
0.590054 -0.015779 -0.200409 76 153 0
0.579237 -0.000150 0.506692 76 0 153
-0.121709 0.015479 -0.008375 153 0 76
-0.186395 -0.000150 -0.023613 153 0 76
-0.205578 -0.000150 0.108159 0 127 127
0.370132 -0.000150 0.262854 76 0 153
0.244008 0.015479 0.205544 76 0 153
-0.220683 0.010904 0.022399 153 0 76
0.027914 -0.000150 0.082685 153 0 76
0.594240 0.014262 0.242286 76 0 153
-0.288426 0.004447 -0.119435 153 0 76
-0.682563 -0.000150 -0.189381 153 0 76
0.647854 -0.014694 -0.221446 76 153 0
-0.357172 -0.000150 -0.110804 153 0 76
-0.193988 0.015479 0.022065 153 0 76
0.533362 -0.015779 -0.278099 76 153 0
-0.446839 -0.000150 0.130373 0 127 127
-0.324487 -0.000150 0.142288 0 127 127
0.220912 -0.000150 0.147280 76 0 153
0.044572 0.015479 0.110504 153 0 76
0.071795 0.015479 0.116784 153 0 76
0.038996 0.014787 -0.031814 153 0 76
-0.805459 0.001383 -0.225190 153 0 76
0.245750 -0.015779 -0.155693 76 153 0
-0.282190 -0.000150 0.056746 0 127 127
-0.187741 -0.000150 -0.077046 153 0 76
0.569371 0.001797 0.240359 76 0 153
-0.547407 0.011953 -0.115934 153 0 76
0.200807 0.015479 0.193183 76 0 153
-0.656474 -0.000150 -0.185146 153 0 76
-0.333987 -0.000150 -0.037499 153 0 76
0.080804 -0.000150 0.114371 153 0 76
-0.592002 -0.000150 0.172938 0 127 127
0.294420 -0.000150 0.188997 76 0 153
0.117394 -0.000150 0.130460 76 0 153
-0.231174 -0.000150 0.097359 0 127 127
-0.372575 0.015479 -0.097527 153 0 76
-0.500172 0.015479 -0.163858 153 0 76
0.522559 -0.000150 0.245151 76 0 153
0.633871 -0.000150 -0.214976 76 153 0
0.644914 -0.015779 -0.449917 76 153 0
0.395498 -0.000150 -0.217025 76 153 0
-0.161554 -0.000150 0.082266 0 127 127
0.875538 -0.015779 -0.437091 76 153 0
0.124019 0.015479 0.158272 76 0 153
0.710892 -0.015714 -0.227923 76 153 0
0.435193 -0.001963 -0.198113 76 153 0
0.210958 0.015479 0.154101 76 0 153
-0.094535 0.015479 0.056306 153 0 76
-0.093840 -0.015779 0.076174 0 127 127
0.743679 -0.015779 -0.410521 76 153 0
-0.053595 -0.000150 0.090287 0 127 127
0.002152 -0.015779 -0.034285 0 127 127
0.445337 0.015479 0.274985 76 0 153
0.300227 0.015479 0.242522 76 0 153
-0.523776 0.015479 -0.148145 153 0 76
0.332327 -0.015779 -0.160690 76 153 0
-0.207319 -0.000150 0.077999 0 127 127
0.143714 -0.000150 0.103846 76 0 153
0.052461 -0.015779 0.054737 0 127 127
0.470246 -0.000150 0.438118 76 0 153
-0.042538 -0.000150 -0.040501 153 0 76
0.065741 -0.000150 0.085319 153 0 76
0.429591 0.014670 0.297719 76 0 153
0.608152 -0.000150 -0.440649 76 153 0
0.560633 -0.000150 0.492422 76 0 153
0.219961 0.004191 0.208964 76 0 153
-0.379969 0.000618 -0.045041 153 0 76
0.013113 -0.000150 -0.052693 0 127 127
0.454403 0.015479 0.387797 76 0 153
-0.476521 0.015479 -0.107938 153 0 76
-0.822816 -0.010833 0.224765 0 127 127
0.234626 -0.015779 -0.114337 76 153 0
0.149072 -0.002300 -0.050915 76 153 0
-0.505339 -0.000150 -0.129123 153 0 76
-0.100076 -0.000150 0.097084 0 127 127
-0.383104 -0.000150 0.100941 0 127 127
-0.281260 -0.000150 0.041795 0 127 127
-0.810079 -0.000807 0.220320 0 127 127
-0.742013 -0.002134 0.196568 0 127 127
0.062348 -0.000150 -0.086188 0 127 127
0.262325 -0.015779 -0.141065 76 153 0
0.060548 -0.015779 -0.003319 0 127 127
-0.008084 -0.000150 -0.051611 0 127 127
0.086655 -0.015779 -0.012981 0 127 127
-0.846573 -0.000150 -0.255010 153 0 76
-0.373157 -0.000150 -0.080479 153 0 76
0.125276 -0.000150 -0.101661 76 153 0
-0.010589 0.015479 0.007790 153 0 76
-0.036654 0.015464 0.100315 153 0 76
0.690354 0.015479 0.312432 76 0 153
0.133216 -0.000628 -0.040693 76 153 0
0.143943 -0.000150 0.118793 76 0 153
-0.145479 -0.015779 -0.005861 0 127 127
0.033309 -0.000150 0.004579 153 0 76
-0.024467 -0.015779 0.035341 0 127 127
0.338554 0.015479 0.223322 76 0 153
0.032745 0.015479 -0.004769 153 0 76
-0.367884 0.015479 -0.040930 153 0 76
0.121945 0.009633 0.069174 153 0 76
-0.464659 -0.002258 0.099781 0 127 127
0.280550 -0.000150 0.221235 76 0 153
-0.651472 0.015479 -0.173675 153 0 76
0.515544 -0.000184 -0.349239 76 153 0
-0.437108 -0.000150 -0.159009 153 0 76
0.511101 -0.000150 -0.239447 76 153 0
-0.898903 -0.001649 0.269950 0 127 127
0.329033 0.015479 0.246188 76 0 153
-0.340179 0.015479 -0.045696 153 0 76
0.597344 -0.015779 -0.223593 76 153 0
-0.534016 0.015479 -0.126544 153 0 76
-0.101114 0.015479 -0.021330 153 0 76
0.692455 0.015479 0.450807 76 0 153
-0.044053 -0.015779 0.053808 0 127 127
-0.361926 -0.000150 0.078981 0 127 127
0.619333 0.013736 0.275420 76 0 153
0.005362 0.015479 0.060739 153 0 76
-0.413045 -0.015779 0.109831 0 127 127
0.547707 -0.015779 -0.404996 76 153 0
-0.550918 -0.008972 0.195983 0 127 127
0.648161 0.001516 0.477232 76 0 153
0.183386 0.015479 0.181425 76 0 153
-0.407580 -0.000150 0.082812 0 127 127
0.557275 -0.000150 -0.403401 76 153 0
0.005497 -0.000150 0.099340 153 0 76
-0.363143 -0.000150 0.155049 0 127 127
-0.241736 0.015479 -0.077046 153 0 76
-0.452194 -0.015779 0.164525 0 127 127
0.768570 -0.000150 -0.409876 76 153 0
-0.604785 0.000714 -0.140227 153 0 76
-0.591193 -0.015779 0.144805 0 127 127
-0.403212 -0.000150 0.152824 0 127 127
0.698074 0.002368 0.440255 76 0 153
-0.364618 -0.015779 0.094182 0 127 127
-0.173763 -0.000150 -0.059468 153 0 76
0.068465 -0.000150 0.053456 153 0 76
0.490168 -0.011864 -0.221334 76 153 0
0.070189 -0.015779 0.036363 0 127 127
0.289218 -0.013484 -0.136454 76 153 0
0.096393 -0.000150 0.048720 0 127 127
-0.084024 -0.000150 0.014025 0 127 127
0.218241 -0.015779 -0.153935 76 153 0
0.468262 0.015479 0.409495 76 0 153
-0.195528 0.015479 0.008411 153 0 76
0.213521 -0.015779 -0.102126 76 153 0
0.037358 0.015479 0.098536 153 0 76
-0.479499 -0.015779 0.150725 0 127 127
0.688594 -0.015779 -0.440617 76 153 0
-0.655269 -0.000150 0.217256 0 127 127
-0.250197 0.015479 -0.010697 153 0 76
-0.258344 -0.000150 -0.042357 153 0 76
-0.151813 0.015479 0.029665 153 0 76
-0.650778 0.015479 -0.201506 153 0 76
-0.076612 -0.015779 0.004505 0 127 127
0.296552 -0.000150 -0.161014 76 153 0
-0.037999 -0.015779 0.011301 0 127 127
0.852713 -0.000150 -0.405090 76 153 0
-0.476389 0.015479 -0.156624 153 0 76
0.863707 -0.015779 -0.410970 76 153 0
0.441542 0.011858 0.364826 76 0 153
-0.672217 -0.015779 0.188773 0 127 127
-0.389338 -0.000150 0.144886 0 127 127
0.521841 0.015479 0.470352 76 0 153
-0.455945 -0.003719 0.175796 0 127 127
0.023841 -0.015779 -0.045157 0 127 127
-0.442402 0.015479 -0.074399 153 0 76
0.097051 -0.015779 -0.079282 0 127 127
-0.592343 -0.015779 0.183319 0 127 127
-0.214391 -0.000150 -0.098398 153 0 76
0.748596 -0.015779 -0.384504 76 153 0
0.704911 -0.000150 -0.223539 76 153 0
-0.266138 -0.015779 0.057674 0 127 127
0.238084 -0.000150 0.189755 76 0 153
0.134412 -0.015779 -0.111019 76 153 0
0.510485 -0.000150 0.475899 76 0 153
-0.035877 -0.000150 -0.025567 153 0 76
-0.286375 -0.015779 0.095816 0 127 127
0.040093 -0.000150 -0.049255 0 127 127
-0.053381 -0.015779 -0.011768 0 127 127
-0.406326 0.015479 -0.133752 153 0 76
-0.308990 0.015479 -0.087772 153 0 76
0.391473 -0.000150 0.273359 76 0 153
0.752743 -0.015779 -0.316796 76 153 0
-0.073474 -0.015779 -0.019859 0 127 127
-0.000279 -0.000150 -0.028102 0 127 127
0.815028 -0.015163 -0.387544 76 153 0
-0.090125 -0.000150 -0.020144 0 127 127
0.202803 -0.015779 -0.119758 76 153 0
-0.417025 -0.000150 0.140014 0 127 127
0.060800 -0.015779 -0.052543 0 127 127
-0.760861 -0.000150 -0.212664 153 0 76
0.224211 0.015479 0.177885 76 0 153
-0.265736 -0.000150 0.122307 0 127 127
-0.359853 0.015479 -0.077588 153 0 76
0.169918 -0.015779 -0.094610 76 153 0
0.291613 -0.015779 -0.153750 76 153 0
-0.161531 -0.015779 -0.000296 0 127 127
0.384833 0.015479 0.243557 76 0 153
0.762324 -0.000150 -0.287198 76 153 0
-0.133123 0.015479 -0.069663 153 0 76
-0.825289 0.015479 -0.257315 153 0 76
0.079770 -0.000150 0.025190 0 127 127
0.455777 -0.000150 0.372742 76 0 153
0.085103 -0.015779 -0.040156 0 127 127
0.710175 0.015479 0.368625 76 0 153
-0.730469 -0.015779 0.233556 0 127 127
0.659248 -0.000150 0.300592 76 0 153
0.541980 0.015479 0.495485 76 0 153
-0.962699 -0.004603 0.283510 0 127 127
0.105034 -0.011935 0.043557 0 127 127
0.525157 0.000158 0.457872 76 0 153
-0.531747 -0.011827 0.123192 0 127 127
-0.260160 -0.000150 -0.004799 153 0 76
-0.116921 -0.000150 0.103574 0 127 127
-0.434455 0.015479 -0.130461 153 0 76
-0.232651 -0.000150 0.001175 153 0 76
-0.129392 -0.000150 0.003121 153 0 76
-0.194947 -0.000150 0.068282 0 127 127
0.083630 -0.000150 0.142027 153 0 76
0.702589 -0.000150 -0.443237 76 153 0
-0.531961 -0.000150 0.191722 0 127 127
-0.304859 -0.000150 -0.031463 153 0 76
-0.171956 -0.000150 0.055901 0 127 127
0.047480 -0.015779 -0.028814 0 127 127
0.624583 0.013163 0.511236 76 0 153
0.383311 -0.015779 -0.212982 76 153 0
-0.069564 -0.015779 0.039831 0 127 127
0.447565 -0.006250 -0.251506 76 153 0
-0.189231 -0.000552 0.119104 0 127 127
-0.566841 -0.000150 -0.154361 153 0 76
-0.397301 0.015479 -0.081668 153 0 76
-0.138779 0.014782 0.057077 153 0 76
-0.325345 -0.000150 0.069706 0 127 127
-0.123213 0.014566 0.063667 153 0 76
0.015944 -0.015779 0.032605 0 127 127
-0.408007 -0.000150 0.096534 0 127 127
0.152821 -0.015779 -0.056055 76 153 0
0.016697 -0.000150 -0.035255 0 127 127
-0.301076 0.015479 -0.102151 153 0 76
0.709629 -0.000150 0.464613 76 0 153
0.112696 0.015186 0.018478 153 0 76
-0.286138 -0.000150 -0.069086 153 0 76
-0.206462 0.013892 0.028420 153 0 76
-0.359707 -0.015779 0.144432 0 127 127
-0.304627 0.015479 -0.046090 153 0 76
-0.467713 0.015049 -0.082191 153 0 76
-0.267307 -0.015779 0.037298 0 127 127
-0.467755 -0.000150 -0.098332 153 0 76
-0.378890 -0.000150 -0.106643 153 0 76
-0.025712 -0.015779 -0.033774 0 127 127
0.618224 -0.015291 -0.432326 76 153 0
0.489922 -0.000150 -0.254863 76 153 0
-0.438178 -0.000353 0.090540 0 127 127
-0.629346 0.015479 -0.208509 153 0 76
-0.724041 -0.015779 0.196238 0 127 127
-0.641686 -0.015779 0.214131 0 127 127
-0.091520 -0.000150 -0.046837 153 0 76
-0.257680 -0.000150 0.096837 0 127 127
0.079245 0.015479 0.092244 153 0 76
-0.594937 -0.000150 -0.169080 153 0 76
-0.259063 -0.000150 0.039233 0 127 127
-0.530674 -0.000150 0.145828 0 127 127
0.463910 0.015479 0.309928 76 0 153
-0.589956 -0.000150 -0.186213 153 0 76
0.260983 -0.000150 -0.167594 76 153 0
0.254864 -0.000150 -0.155863 76 153 0
0.317814 -0.000150 0.236370 76 0 153
0.461063 -0.000150 0.399905 76 0 153
-0.452280 -0.015779 0.095728 0 127 127
0.601914 0.014346 0.484488 76 0 153
-0.313470 -0.000150 -0.104241 153 0 76
-0.942764 -0.000150 0.268975 0 127 127
-0.553167 -0.000150 0.175088 0 127 127
-0.248031 -0.002285 0.024186 0 127 127
-0.434432 -0.015779 0.138418 0 127 127
-0.307164 -0.005153 0.044821 0 127 127
-0.170557 0.015479 -0.062689 153 0 76
0.131426 0.015479 0.132276 76 0 153
0.724434 -0.000150 0.424094 76 0 153
0.034056 0.015479 0.050940 153 0 76
0.243045 0.011186 0.157251 76 0 153
-0.801002 0.003295 -0.251542 153 0 76
-0.286804 0.015479 -0.078294 153 0 76
-0.361640 0.009046 -0.139028 153 0 76
-0.028838 -0.015779 0.073364 0 127 127
0.270110 -0.000150 0.229724 76 0 153
-0.421672 -0.014766 0.084780 0 127 127
0.767874 -0.015779 -0.329347 76 153 0
-0.017978 0.015479 0.072690 153 0 76
-0.315392 0.000482 -0.126652 153 0 76
-0.153190 -0.015779 0.078376 0 127 127
0.207986 -0.000150 -0.145224 76 153 0
0.670321 0.015479 0.296729 76 0 153
0.675596 0.011599 0.492441 76 0 153
-0.550550 -0.015779 0.163201 0 127 127
-0.177816 0.015479 0.023639 153 0 76
-0.293842 -0.015779 0.054036 0 127 127
-0.298160 -0.015779 0.137927 0 127 127
0.584049 -0.000150 -0.218153 76 153 0
-0.188569 0.015479 -0.035921 153 0 76
-0.387036 0.015265 -0.048034 153 0 76
-0.503416 -0.015779 0.144967 0 127 127
0.443709 -0.014910 -0.201710 76 153 0
-0.196525 -0.015779 0.024883 0 127 127
0.137092 0.015479 0.158700 76 0 153
-0.051780 -0.000150 0.045459 0 127 127
0.220621 -0.000150 0.160344 76 0 153
-0.688172 -0.000150 -0.211226 153 0 76
0.367759 0.012687 0.223204 76 0 153
-0.081340 0.015479 -0.005746 153 0 76
0.045979 -0.000150 0.012196 153 0 76
0.136553 0.012856 0.090614 76 0 153
0.761776 -0.014148 -0.275414 76 153 0
-0.923062 -0.013039 0.259747 0 127 127
0.024432 -0.015779 -0.063893 0 127 127
0.619878 0.015479 0.496857 76 0 153
-0.114094 0.004758 -0.072782 153 0 76
0.620323 -0.008092 -0.221115 76 153 0
0.654605 -0.000150 -0.446619 76 153 0
-0.448004 -0.015779 0.119722 0 127 127
0.088619 0.015479 -0.001627 153 0 76
-0.382976 0.015479 -0.126818 153 0 76
-0.396862 -0.000150 0.105284 0 127 127
-0.427155 0.014583 -0.065020 153 0 76
0.270894 -0.000150 -0.140534 76 153 0
-0.108934 -0.000150 -0.014406 0 127 127
-0.160566 -0.015779 0.050506 0 127 127
-0.796196 -0.010604 0.215475 0 127 127
0.193867 -0.015779 -0.093620 76 153 0
0.738494 -0.001753 -0.250882 76 153 0
-0.691953 0.015479 -0.212750 153 0 76
0.557721 0.015479 0.256142 76 0 153
-0.428593 -0.000150 0.114816 0 127 127
-0.430751 -0.000150 -0.090146 153 0 76
0.661268 0.015479 0.473930 76 0 153
-0.186377 -0.015779 0.050891 0 127 127
-0.319906 0.015479 -0.114615 153 0 76
0.510790 -0.013022 -0.336197 76 153 0
-0.539571 -0.015779 0.174361 0 127 127
0.685263 -0.013140 -0.214020 76 153 0
-0.222045 -0.000150 -0.079827 153 0 76
-0.611163 -0.000150 -0.166649 153 0 76
0.116240 -0.000099 0.060803 153 0 76
-0.575093 -0.011326 0.138319 0 127 127
-0.393939 -0.015779 0.146999 0 127 127
-0.098969 0.015479 0.002132 153 0 76
-0.148674 0.015479 -0.005077 153 0 76
0.055762 -0.000150 0.070402 0 127 127
-0.538130 -0.000150 -0.140161 153 0 76
-0.940845 -0.015539 0.278864 0 127 127
0.460143 -0.000150 0.295989 76 0 153
-0.388870 -0.000150 -0.073444 153 0 76
-0.308215 -0.015779 0.058490 0 127 127
0.696515 0.012472 0.476946 76 0 153
-0.131266 0.015479 0.035393 153 0 76
-0.001211 -0.000150 -0.001829 0 127 127
-0.042318 -0.000150 0.004563 153 0 76
-0.739970 -0.000150 -0.220637 153 0 76
0.356550 -0.000150 0.232316 76 0 153
-0.165989 -0.000150 0.031783 153 0 76
0.144499 0.015479 0.136792 76 0 153
0.738136 -0.000150 -0.393986 76 153 0
0.099647 -0.015779 -0.004916 0 127 127
-0.179341 -0.000150 -0.035266 153 0 76
0.499727 -0.000150 -0.264458 76 153 0
0.516259 -0.000150 -0.320871 76 153 0
-0.232059 0.015479 -0.029425 153 0 76
0.560180 0.015479 0.503594 76 0 153
-0.553241 0.015479 -0.142949 153 0 76
0.449330 -0.000150 0.359224 76 0 153
-0.596700 -0.000150 0.159517 0 127 127
-0.457593 0.015479 -0.094523 153 0 76
-0.772491 0.013295 -0.211232 153 0 76
-0.277555 -0.000150 0.083838 0 127 127
0.247722 0.015479 0.173450 76 0 153
-0.523931 0.001796 -0.182459 153 0 76
-0.409795 0.015479 -0.076134 153 0 76
0.016538 -0.015779 0.005574 0 127 127
-0.064155 -0.000150 -0.027541 153 0 76
0.598375 -0.000214 -0.448947 76 153 0
-0.623343 -0.000150 -0.161273 153 0 76
-0.356869 -0.015779 0.069894 0 127 127
0.046167 -0.015779 -0.050878 0 127 127
0.705599 -0.000150 0.413459 76 0 153
0.420986 0.001879 0.294076 76 0 153
-0.246081 0.012332 0.011645 153 0 76
0.536687 -0.000150 -0.379561 76 153 0
0.469493 0.003045 0.345680 76 0 153
-0.032736 -0.000150 -0.048720 0 127 127
0.087737 0.015479 0.026395 153 0 76
0.038496 0.000288 0.132133 153 0 76
0.533160 -0.000150 0.482694 76 0 153
-0.323017 -0.015779 0.103425 0 127 127
0.113087 0.012691 0.001900 153 0 76
-0.158151 -0.000150 0.057912 0 127 127
-0.212429 0.015479 -0.047647 153 0 76
-0.177294 -0.000150 0.101632 0 127 127
0.211753 0.010325 0.140702 76 0 153
-0.003799 0.015479 -0.018959 153 0 76
0.405742 0.015479 0.276415 76 0 153
-0.498671 -0.000150 0.123868 0 127 127
-0.441282 -0.000150 -0.133631 153 0 76
-0.649828 -0.000150 0.189384 0 127 127
0.138034 -0.000150 -0.101916 76 153 0
-0.338963 -0.000150 0.098627 0 127 127
0.551743 -0.015779 -0.231107 76 153 0
-0.587099 0.015479 -0.144191 153 0 76
-0.707258 0.002990 -0.183613 153 0 76
0.642134 0.015479 0.489721 76 0 153
-0.147477 0.015479 -0.029013 153 0 76
-0.440907 -0.000150 -0.113174 153 0 76
-0.817423 -0.000150 -0.248384 153 0 76
-0.201916 -0.015779 0.042546 0 127 127
0.648430 0.015217 0.295460 76 0 153
-0.135602 -0.002236 0.107705 0 127 127
0.516479 -0.000150 -0.278740 76 153 0
-0.477986 0.007799 -0.086541 153 0 76
0.430744 0.015479 0.272910 76 0 153
0.109871 0.015479 0.149651 76 0 153
-0.456783 0.000361 -0.077564 153 0 76
-0.344749 -0.015779 0.111422 0 127 127
-0.772730 -0.015779 0.218562 0 127 127
-0.413654 -0.000150 -0.120457 153 0 76
-0.214169 -0.015779 0.064092 0 127 127
-0.384079 -0.000150 0.081258 0 127 127
0.462481 0.005657 0.429006 76 0 153
0.511113 0.012705 0.450185 76 0 153
0.511646 -0.015779 -0.310902 76 153 0
-0.330489 0.015479 -0.073895 153 0 76
-0.139642 -0.015779 0.059843 0 127 127
-0.523731 -0.002395 0.120395 0 127 127
0.476141 -0.015779 -0.249869 76 153 0
0.590761 -0.000477 -0.238579 76 153 0
0.395911 0.015479 0.268357 76 0 153
-0.068310 -0.015779 0.080616 0 127 127
-0.192308 0.015479 -0.048163 153 0 76
-0.745148 -0.010733 0.237268 0 127 127
-0.138302 -0.000150 -0.039553 153 0 76
0.063317 -0.015779 0.047752 0 127 127
0.135371 -0.000150 0.151777 76 0 153
-0.882742 -0.000150 0.254093 0 127 127
0.476773 -0.000150 -0.258847 76 153 0
0.759603 -0.015779 -0.302039 76 153 0
-0.340983 -0.000150 -0.081948 153 0 76
0.772459 -0.014937 -0.356249 76 153 0
0.296667 -0.000150 0.202100 76 0 153
-0.485405 0.015479 -0.132885 153 0 76
0.110391 -0.008725 0.020517 0 127 127
-0.679465 0.002278 -0.171845 153 0 76
-0.313849 -0.015779 0.132498 0 127 127
0.437608 -0.000150 0.285060 76 0 153
0.510774 0.015479 0.260219 76 0 153
0.187751 -0.015779 -0.138617 76 153 0
0.318202 -0.000150 0.201098 76 0 153
0.595140 0.015479 0.265066 76 0 153
0.485102 0.000670 0.419422 76 0 153
-0.284098 -0.000150 -0.038224 153 0 76
-0.284299 -0.015779 0.073330 0 127 127
-0.459257 -0.000150 -0.153116 153 0 76
0.571854 -0.003303 -0.411048 76 153 0
-0.301591 -0.000150 0.132532 0 127 127
0.533014 -0.000150 -0.294378 76 153 0
-0.122680 -0.015779 -0.007886 0 127 127
0.447753 -0.000150 0.382794 76 0 153
-0.674903 0.015479 -0.201775 153 0 76
0.302430 0.011615 0.188655 76 0 153
0.098629 0.015479 0.059033 153 0 76
0.536825 -0.002941 -0.402906 76 153 0
-0.719052 -0.000150 0.231218 0 127 127
-0.457379 -0.015779 0.110511 0 127 127
-0.633103 -0.000150 0.170899 0 127 127
-0.775502 -0.000150 -0.224639 153 0 76
0.602467 -0.015779 -0.196995 76 153 0
-0.348433 -0.000150 0.132805 0 127 127
0.036335 -0.000150 -0.017367 153 0 76
-0.885859 -0.015779 0.263573 0 127 127
-0.626330 0.003759 -0.149349 153 0 76
-0.830619 -0.001380 0.227488 0 127 127
0.564658 -0.015779 -0.419959 76 153 0
0.343006 -0.000062 0.210114 76 0 153
-0.265444 0.015479 -0.054325 153 0 76
-0.650757 0.003850 -0.159691 153 0 76
-0.629815 0.015479 -0.164338 153 0 76
-0.064473 0.015479 0.035122 153 0 76
0.003422 -0.000150 0.078121 0 127 127
0.744749 -0.011460 -0.292993 76 153 0
-0.325415 -0.015656 0.148051 0 127 127
0.568949 -0.000150 -0.238929 76 153 0
0.458521 -0.000150 -0.211307 76 153 0
0.555286 -0.009957 -0.275488 76 153 0
0.671286 -0.000150 -0.212446 76 153 0
-0.152703 -0.015779 0.104827 0 127 127
0.005689 0.010948 0.118242 153 0 76
-0.200165 -0.000150 -0.058588 153 0 76
-0.720874 -0.000150 -0.220363 153 0 76
0.686550 -0.000150 0.466272 76 0 153
0.160029 -0.000150 0.167350 76 0 153
0.284466 -0.000150 -0.176113 76 153 0
-0.352254 0.015479 -0.100753 153 0 76
-0.509725 0.015479 -0.135311 153 0 76
0.124085 -0.000150 -0.056437 76 153 0
-0.356537 -0.000150 0.109696 0 127 127
-0.219227 -0.000150 -0.021811 153 0 76
-0.071540 0.005194 -0.061395 153 0 76
-0.567517 -0.000150 -0.180522 153 0 76
-0.512911 -0.015779 0.169251 0 127 127
-0.557483 -0.000150 -0.133759 153 0 76
-0.601255 -0.000150 -0.192264 153 0 76
0.769903 -0.000150 -0.340350 76 153 0
0.231262 -0.003180 -0.160141 76 153 0
0.353504 -0.015779 -0.172265 76 153 0
-0.082503 -0.000150 0.040550 153 0 76
0.260742 0.007366 0.226230 76 0 153
-0.608974 -0.015779 0.194468 0 127 127
0.050170 0.015479 0.001115 153 0 76
0.447786 0.003017 0.406330 76 0 153
0.082237 -0.015779 0.012904 0 127 127
0.709268 0.015479 0.451641 76 0 153
-0.191593 0.015479 -0.090976 153 0 76
-0.033711 -0.000150 0.087657 0 127 127
-0.107326 0.015479 -0.056877 153 0 76
0.557899 -0.000150 -0.264179 76 153 0
0.392217 -0.000150 0.247127 76 0 153
-0.604846 0.011440 -0.203616 153 0 76
-0.313738 -0.000150 -0.058633 153 0 76
-0.610334 -0.000150 0.180881 0 127 127
0.283057 0.012178 0.235678 76 0 153
0.052105 0.015479 0.129943 153 0 76
-0.257870 -0.015779 0.133578 0 127 127
0.028334 0.015479 0.014603 153 0 76
0.512929 -0.000150 0.262690 76 0 153
0.192732 -0.000150 -0.106194 76 153 0
-0.747857 0.015479 -0.206497 153 0 76
0.533676 -0.015779 -0.253182 76 153 0
-0.235349 -0.000150 0.043400 0 127 127
0.542726 -0.003428 -0.306459 76 153 0
-0.021205 -0.015219 -0.054968 0 127 127
-0.252437 -0.015779 0.057833 0 127 127
0.636571 0.005295 0.284758 76 0 153
-0.957073 -0.003839 0.271615 0 127 127
-0.473156 -0.015779 0.115151 0 127 127
0.764165 -0.000150 -0.366622 76 153 0
0.325892 -0.000150 -0.179577 76 153 0
0.074710 -0.015636 -0.094014 0 127 127
-0.002221 0.015479 -0.040051 153 0 76
0.122830 -0.004004 -0.032994 0 127 127
-0.785312 -0.000150 0.232325 0 127 127
0.203863 -0.000150 0.183971 76 0 153
0.679183 0.015383 0.458325 76 0 153
0.610043 0.003847 0.484433 76 0 153
0.197098 -0.000327 -0.081874 76 153 0
0.408414 -0.000150 -0.191676 76 153 0
-0.834996 -0.015273 0.256366 0 127 127
0.443116 0.012572 0.321667 76 0 153
0.015771 0.015479 0.038341 153 0 76
0.680353 -0.000150 0.306425 76 0 153
-0.153056 -0.015779 0.027432 0 127 127
-0.183936 -0.000150 0.028332 0 127 127
0.163412 -0.015779 -0.066454 76 153 0
0.541174 -0.015779 -0.367640 76 153 0
-0.465858 -0.000150 0.154348 0 127 127
0.094294 -0.000150 -0.036364 0 127 127
0.588740 -0.000150 0.498904 76 0 153
0.009576 -0.015779 0.053473 0 127 127
0.359964 -0.000150 0.252204 76 0 153
0.528009 -0.015779 -0.347535 76 153 0
-0.259029 -0.000150 -0.028972 153 0 76
0.138611 -0.002261 -0.121006 76 153 0
-0.236520 -0.000150 -0.061737 153 0 76
-0.198597 -0.015779 0.081239 0 127 127
0.064373 -0.000150 -0.041199 0 127 127
-0.320274 -0.003641 0.049396 0 127 127
-0.007894 -0.000150 0.016602 153 0 76
0.446971 -0.000150 0.276227 76 0 153
-0.021272 -0.000150 0.079386 153 0 76
0.022616 -0.000150 0.024817 0 127 127
-0.089024 0.004131 -0.066074 153 0 76
-0.260466 0.015479 -0.082359 153 0 76
-0.192635 -0.000150 0.093778 0 127 127
-0.487561 -0.000150 -0.170322 153 0 76
-0.432380 -0.015779 0.101788 0 127 127
-0.010990 -0.000150 0.058498 153 0 76
-0.081129 -0.015779 0.029175 0 127 127
-0.454595 0.015479 -0.123222 153 0 76
-0.035670 -0.000150 0.042285 0 127 127
0.761233 -0.000150 -0.390500 76 153 0
-0.058685 0.015479 -0.020888 153 0 76
-0.364565 -0.000150 -0.128899 153 0 76
-0.095632 -0.000150 0.034450 153 0 76
-0.166571 -0.015779 0.065419 0 127 127
0.051941 0.015479 0.019672 153 0 76
-0.228597 -0.000150 0.020114 153 0 76
-0.487329 -0.000689 0.182467 0 127 127
0.587913 0.003266 0.484582 76 0 153
0.620529 0.005915 0.249321 76 0 153
-0.414957 -0.015779 0.163742 0 127 127
0.593445 -0.015779 -0.441004 76 153 0
0.042386 -0.000150 0.057957 0 127 127
0.125270 0.015479 0.094380 76 0 153
-0.290148 0.015479 -0.026604 153 0 76
0.378348 0.015479 0.256921 76 0 153
0.493406 0.015479 0.453950 76 0 153
0.091809 0.015479 0.100069 153 0 76
0.043163 -0.000150 0.026764 0 127 127
0.541555 -0.000150 -0.282160 76 153 0
0.182029 -0.000150 0.138595 76 0 153
-0.308720 0.015479 -0.062987 153 0 76
-0.088007 -0.000150 0.001141 0 127 127
-0.702074 -0.015779 0.204323 0 127 127
0.644495 0.015479 0.272177 76 0 153
-0.412924 0.015479 -0.110240 153 0 76
0.724358 0.010366 0.430160 76 0 153
-0.076439 0.015479 -0.021969 153 0 76
-0.364038 -0.000150 0.096734 0 127 127
0.870630 -0.000150 -0.421952 76 153 0
-0.673442 0.005676 -0.220375 153 0 76
-0.533640 0.015479 -0.138670 153 0 76
0.312538 -0.007732 -0.194472 76 153 0
-0.167970 0.015479 0.014184 153 0 76
-0.513014 -0.000150 0.176850 0 127 127
-0.390822 0.015479 -0.116036 153 0 76
0.153333 -0.015779 -0.117508 76 153 0
0.298462 0.015479 0.218908 76 0 153
-0.383263 -0.000150 -0.141115 153 0 76
-0.862929 -0.000678 0.238762 0 127 127
-0.625630 -0.013582 0.155954 0 127 127
-0.418634 -0.000150 0.102364 0 127 127
-0.462194 0.004012 -0.165937 153 0 76
-0.122126 0.015479 -0.036751 153 0 76
0.003433 -0.000150 0.037547 0 127 127
-0.801729 0.012792 -0.223611 153 0 76
-0.108531 -0.015779 0.066530 0 127 127
0.314807 0.003328 0.249120 76 0 153
0.225743 0.015479 0.159409 76 0 153
-0.425335 -0.000150 -0.133162 153 0 76
-0.123125 -0.000150 0.085012 0 127 127
0.652315 -0.015779 -0.460100 76 153 0
-0.158040 -0.000150 -0.018663 153 0 76
-0.421500 0.015479 -0.147795 153 0 76
0.103833 -0.000150 0.103669 153 0 76
-0.721315 -0.000150 -0.202571 153 0 76
-0.183230 -0.004558 0.001573 0 127 127
-0.690845 -0.007838 0.178712 0 127 127
-0.572644 0.012075 -0.126618 153 0 76
0.635173 0.011297 0.253240 76 0 153
-0.571127 -0.000150 0.153695 0 127 127
-0.732184 0.015479 -0.225202 153 0 76
0.081163 -0.015779 -0.060678 0 127 127
0.248805 -0.000150 -0.116851 76 153 0
-0.538945 0.015479 -0.178685 153 0 76
0.330119 -0.000150 0.214556 76 0 153
0.507729 -0.015779 -0.273704 76 153 0
0.143479 0.015479 0.112606 76 0 153
0.270004 -0.000543 -0.128338 76 153 0
-0.262855 0.006147 -0.112592 153 0 76
0.040048 -0.000150 0.084736 153 0 76
0.098512 -0.000150 0.002365 153 0 76
0.576788 0.005751 0.264034 76 0 153
-0.256713 0.015479 -0.025349 153 0 76
-0.171416 -0.015779 0.044022 0 127 127
-0.258148 0.003305 0.006536 153 0 76
0.245289 -0.000150 0.162075 76 0 153
-0.227249 -0.015779 0.049686 0 127 127
-0.395200 -0.015779 0.162015 0 127 127
-0.871991 -0.000150 0.262870 0 127 127
-0.285161 0.015479 -0.050337 153 0 76
-0.216195 0.015479 -0.065225 153 0 76
0.599037 0.014951 0.510059 76 0 153
0.067211 0.015479 0.041139 153 0 76
-0.379892 0.015479 -0.064437 153 0 76
0.112184 -0.000150 0.085717 153 0 76
-0.196410 -0.000150 -0.007141 153 0 76
0.255581 -0.000150 0.193034 76 0 153
0.689401 -0.003178 -0.237997 76 153 0
0.663780 0.008458 0.276334 76 0 153
0.750905 -0.015779 -0.398551 76 153 0
-0.502835 -0.000150 0.137715 0 127 127
-0.624988 -0.000150 0.190318 0 127 127
-0.062587 -0.015779 -0.038975 0 127 127
-0.824402 0.012910 -0.233210 153 0 76
-0.221296 -0.015779 0.090293 0 127 127
-0.139732 -0.015779 0.009677 0 127 127
-0.182307 -0.015779 0.065136 0 127 127
-0.478770 0.010306 -0.170373 153 0 76
-0.802553 -0.015779 0.236594 0 127 127
-0.005057 -0.015779 -0.047872 0 127 127
-0.359855 -0.000150 0.136415 0 127 127
-0.594756 -0.015779 0.195954 0 127 127
0.040014 -0.015779 0.037507 0 127 127
0.658844 -0.015779 -0.214951 76 153 0
-0.174100 0.004148 -0.088841 153 0 76
0.601499 -0.000150 0.500062 76 0 153
-0.417000 0.015479 -0.124448 153 0 76
0.662273 0.008998 0.497350 76 0 153
0.389438 -0.002775 -0.226954 76 153 0
-0.229958 0.015479 -0.070406 153 0 76
-0.294199 -0.015779 0.114838 0 127 127
-0.396196 -0.000150 -0.135203 153 0 76
-0.668016 -0.000150 0.204543 0 127 127
-0.211755 -0.000150 0.052733 0 127 127
-0.492409 -0.015779 0.111557 0 127 127
-0.759033 0.000738 -0.241287 153 0 76
-0.230363 -0.009705 0.127847 0 127 127
-0.551257 0.003897 -0.189771 153 0 76
0.739799 -0.015718 -0.422232 76 153 0
0.072386 0.015479 0.008670 153 0 76
-0.566467 -0.000150 0.175098 0 127 127
-0.072706 -0.000150 -0.049619 153 0 76
0.711602 0.015479 0.395282 76 0 153
0.078098 0.015479 0.135887 153 0 76
0.458123 0.015076 0.270992 76 0 153
-0.464055 -0.000150 -0.111697 153 0 76
