ply
format ascii 1.0
element vertex 627
property float x
property float y
property float z
property float nx
property float ny
property float nz
property uchar red
property uchar green
property uchar blue
property float opacity
end_header
0.331449 0.028124 -0.028499 0.066054 0.952294 0.297949 49 255 255 1.000000
0.418637 -0.018023 -0.241608 -0.506197 0.812651 0.288726 0 0 0 1.000000
0.007888 0.001449 0.266287 0.864177 -0.000000 -0.503187 0 0 0 1.000000
-0.215305 0.000617 0.102182 -0.101105 0.000000 0.994876 86 86 86 1.000000
-0.075270 0.028124 -0.042288 0.141065 -0.986755 0.080091 255 255 255 1.000000
0.390711 0.010235 -0.183280 0.985041 -0.000000 -0.172322 255 255 255 1.000000
-0.466212 -0.016277 0.001637 -0.000000 -1.000000 -0.000000 86 86 86 1.000000
0.001306 -0.020900 -0.138389 -0.329797 -0.855551 -0.399083 49 255 255 1.000000
0.376255 0.007607 -0.308312 -0.442176 -0.582485 0.682049 255 255 255 1.000000
-0.289010 -0.016277 0.094221 0.000000 1.000000 0.000000 255 255 255 1.000000
-0.067496 0.015583 0.163802 -0.945490 0.000000 0.325652 255 255 255 1.000000
-0.194903 -0.016277 0.006174 0.000000 1.000000 0.000000 255 255 255 1.000000
-0.017038 -0.018231 -0.074120 -0.668078 -0.000000 -0.744092 0 0 0 1.000000
0.125575 0.028124 -0.217753 -0.128937 0.969869 -0.206711 49 255 255 1.000000
0.425242 0.004819 -0.260943 0.695234 0.542423 -0.471621 49 255 255 1.000000
-0.117243 -0.016277 0.019895 0.000000 1.000000 0.000000 255 255 255 1.000000
-0.870657 -0.006379 0.035582 0.101105 -0.000000 -0.994876 255 255 255 1.000000
-0.057048 0.028124 -0.020020 -0.021813 0.995414 0.093146 49 255 255 1.000000
-0.629106 -0.016277 0.027397 0.000000 1.000000 0.000000 255 255 255 1.000000
0.388911 -0.003770 -0.138595 -0.971519 -0.000000 -0.236962 0 0 0 1.000000
0.329733 0.028124 -0.270004 0.017166 0.998463 -0.052705 49 255 255 1.000000
-0.239043 -0.016277 0.035499 -0.000000 -1.000000 -0.000000 86 86 86 1.000000
0.035553 0.016155 0.118199 -0.221586 -0.812467 0.539256 255 255 255 1.000000
-0.146679 0.002116 0.071931 -0.000000 -1.000000 -0.000000 255 255 255 1.000000
0.395337 -0.023891 -0.173620 0.050602 -0.998512 0.020349 49 255 255 1.000000
-0.348778 0.002116 -0.003600 -0.000000 -1.000000 -0.000000 255 255 255 1.000000
0.183485 0.028124 -0.235164 -0.051531 0.989029 -0.138445 49 255 255 1.000000
0.307238 0.028124 -0.286206 0.009286 0.991532 -0.129532 49 255 255 1.000000
0.189416 -0.023891 -0.239224 0.050307 0.988688 0.141300 0 0 0 1.000000
-0.115349 0.002116 0.006872 -0.000000 -1.000000 -0.000000 255 255 255 1.000000
0.452088 -0.004928 -0.167987 -0.792517 0.609595 0.017639 0 0 0 1.000000
0.129221 -0.013145 0.164735 -0.214200 0.892330 0.397324 255 255 255 1.000000
0.085331 -0.012202 0.346751 0.208990 -0.000000 -0.977918 0 0 0 1.000000
0.177300 -0.023891 -0.241216 -0.095117 -0.975169 -0.199995 49 255 255 1.000000
0.324681 0.016108 -0.010061 -0.146786 -0.715161 -0.683374 255 255 255 1.000000
0.220750 0.015580 0.254544 0.709626 0.702912 0.048436 49 255 255 1.000000
-0.041190 -0.013657 0.110308 -0.008809 0.999734 0.021325 255 255 255 1.000000
-0.067820 0.017890 0.194893 -0.254465 0.957198 0.137914 49 255 255 1.000000
-0.115784 -0.010723 0.023532 0.999430 0.000000 0.033765 86 86 86 1.000000
0.391823 -0.017341 -0.169013 0.999116 -0.000000 -0.042039 0 0 0 1.000000
0.083751 -0.023891 -0.031535 -0.016320 0.996894 -0.077048 0 0 0 1.000000
0.061214 -0.017447 -0.128374 -0.614544 -0.000000 -0.788883 0 0 0 1.000000
0.136331 0.017890 0.185544 -0.043490 -0.993491 0.105280 255 255 255 1.000000
0.025821 -0.008264 0.290667 0.840091 -0.000000 -0.542445 0 0 0 1.000000
0.255421 -0.023891 -0.021619 -0.054728 0.953623 -0.295986 0 0 0 1.000000
-0.113605 -0.016331 0.013418 0.376640 0.816262 -0.438016 0 0 0 1.000000
-0.192959 0.002116 0.100158 -0.000000 -1.000000 -0.000000 255 255 255 1.000000
-0.045556 0.017890 0.219793 0.198543 -0.971752 -0.127591 255 255 255 1.000000
0.353125 0.028124 -0.254757 -0.019280 -0.998060 0.059196 255 255 255 1.000000
0.336151 -0.023891 -0.290655 0.079711 -0.966307 -0.244740 49 255 255 1.000000
0.076709 0.015599 0.374256 -0.122630 0.792823 0.596987 49 255 255 1.000000
0.177243 0.024159 -0.262216 0.223315 -0.849265 0.478413 255 255 255 1.000000
0.108194 0.004150 0.350981 -0.161510 -0.000000 -0.986871 0 0 0 1.000000
0.067159 0.024584 0.004193 -0.046219 -0.846248 -0.530781 255 255 255 1.000000
0.442980 -0.013635 -0.182438 0.662334 -0.745571 -0.073741 49 255 255 1.000000
0.215545 -0.002293 0.209118 -0.824004 0.496859 0.272303 255 255 255 1.000000
-0.067750 -0.013657 0.082889 0.083755 -0.975048 -0.205589 49 255 255 1.000000
0.218743 0.011681 -0.237594 -0.419890 -0.000000 -0.907575 255 255 255 1.000000
-0.052116 -0.002284 -0.038021 -0.754742 -0.000000 -0.656021 0 0 0 1.000000
-0.075288 0.017890 0.078383 -0.089916 -0.971139 0.220915 255 255 255 1.000000
0.208024 -0.012787 0.316883 0.609890 -0.722704 0.325168 49 255 255 1.000000
0.061208 -0.023891 -0.133518 0.020541 0.999350 0.029627 0 0 0 1.000000
0.412705 -0.002376 -0.277094 -0.621685 0.567739 0.539611 0 0 0 1.000000
0.409160 -0.023891 -0.204837 0.268765 -0.959354 -0.086058 49 255 255 1.000000
-0.014828 0.017240 0.019794 -0.024606 0.744602 0.667055 49 255 255 1.000000
0.333086 -0.006883 -0.261152 -0.460013 0.000000 0.887912 0 0 0 1.000000
-0.940816 0.002116 0.023480 0.000000 1.000000 0.000000 86 86 86 1.000000
-0.261454 0.002116 0.015872 -0.000000 -1.000000 -0.000000 255 255 255 1.000000
0.342609 -0.001235 -0.073313 -0.547588 -0.000000 -0.836748 0 0 0 1.000000
-0.066536 -0.023891 -0.068053 -0.187050 -0.969180 -0.160319 49 255 255 1.000000
0.299278 -0.023891 -0.292248 -0.008931 0.985720 0.168154 0 0 0 1.000000
0.004898 0.028124 -0.131261 -0.168698 0.964902 -0.201261 49 255 255 1.000000
-0.980145 -0.002416 0.024455 -0.101105 0.000000 0.994876 86 86 86 1.000000
-0.006586 -0.012501 -0.146183 -0.438820 -0.724993 -0.530869 49 255 255 1.000000
-0.415854 -0.016277 0.076761 -0.000000 -1.000000 -0.000000 86 86 86 1.000000
-0.186117 -0.016277 0.104533 0.000000 1.000000 0.000000 255 255 255 1.000000
-0.139992 0.010250 0.098859 -0.824640 0.501239 -0.262160 49 255 255 1.000000
-0.129054 0.006969 -0.041732 0.741616 -0.604263 0.291327 255 255 255 1.000000
-0.635237 -0.016277 0.044839 -0.000000 -1.000000 -0.000000 86 86 86 1.000000
0.149693 0.017890 0.198560 -0.018058 -0.998881 0.043714 255 255 255 1.000000
-0.038854 -0.023891 -0.027981 0.002205 -0.999232 0.039122 49 255 255 1.000000
0.352742 0.008301 -0.318973 0.329340 0.596605 -0.731846 49 255 255 1.000000
0.104682 -0.002789 0.387640 0.122020 -0.514853 0.848550 49 255 255 1.000000
-0.357544 0.002116 0.021868 -0.000000 -1.000000 -0.000000 255 255 255 1.000000
0.080839 0.012083 -0.040563 0.093917 0.000000 0.995580 255 255 255 1.000000
-0.544229 0.002116 0.060363 -0.000000 -1.000000 -0.000000 255 255 255 1.000000
-0.344610 -0.010210 0.089041 0.101105 -0.000000 -0.994876 255 255 255 1.000000
0.287810 0.000568 0.003389 -0.162283 0.530004 -0.832322 0 0 0 1.000000
-0.609736 -0.016277 0.056577 -0.000000 -1.000000 -0.000000 86 86 86 1.000000
0.190573 -0.013657 0.301304 0.383100 -0.905996 0.180013 49 255 255 1.000000
-0.256898 -0.016277 0.059171 -0.000000 -1.000000 -0.000000 86 86 86 1.000000
0.151387 -0.013657 0.185422 0.117280 -0.977747 -0.173946 49 255 255 1.000000
0.385421 -0.009554 -0.293952 -0.452730 0.682108 0.574251 0 0 0 1.000000
0.299894 -0.019760 -0.017467 -0.108923 0.838040 -0.534626 0 0 0 1.000000
-0.130437 -0.016277 0.090999 0.000000 1.000000 0.000000 255 255 255 1.000000
0.024823 -0.006282 0.144001 0.380059 -0.000000 -0.924962 255 255 255 1.000000
-0.110057 -0.013657 0.142774 0.317127 0.938228 -0.138415 255 255 255 1.000000
0.337713 0.028124 -0.060100 0.031252 0.997621 0.061442 49 255 255 1.000000
0.114419 -0.013657 0.370698 -0.061952 0.943252 -0.326247 255 255 255 1.000000
-0.921607 -0.016277 0.017201 -0.000000 -1.000000 -0.000000 86 86 86 1.000000
0.390431 -0.009581 -0.186869 0.978890 -0.000000 -0.204389 0 0 0 1.000000
0.090745 0.022207 -0.205696 0.296973 -0.819663 0.489857 255 255 255 1.000000
-0.969391 0.002116 0.021296 -0.000000 -1.000000 -0.000000 255 255 255 1.000000
-0.979819 -0.004108 0.016636 -0.041304 -0.000000 -0.999147 86 86 86 1.000000
-0.327717 -0.016277 0.007842 0.000000 1.000000 0.000000 255 255 255 1.000000
-0.096127 -0.013657 0.151636 -0.226069 -0.968216 0.107004 49 255 255 1.000000
0.177249 0.017073 0.354076 0.468075 0.745780 0.474045 49 255 255 1.000000
0.123315 0.005921 0.349582 0.349318 0.000000 0.937004 255 255 255 1.000000
-0.022111 -0.013657 0.119057 -0.010002 0.999657 0.024214 255 255 255 1.000000
0.161247 0.016808 0.365512 0.412720 0.731085 0.543302 49 255 255 1.000000
-0.553227 0.002116 0.005431 0.000000 1.000000 0.000000 86 86 86 1.000000
0.391193 0.022326 -0.177092 0.993227 -0.000000 -0.116188 255 255 255 1.000000
0.190628 -0.004189 0.289842 -0.936490 -0.000000 -0.350694 0 0 0 1.000000
-0.488997 -0.016277 0.029855 0.000000 1.000000 0.000000 255 255 255 1.000000
0.450068 0.002374 -0.211953 0.820068 0.522630 -0.233124 49 255 255 1.000000
-0.306932 -0.014115 0.092871 -0.101105 0.000000 0.994876 86 86 86 1.000000
-0.665137 -0.016277 0.010344 -0.000000 -1.000000 -0.000000 86 86 86 1.000000
0.158636 -0.023891 -0.206365 0.023844 0.997470 0.066971 0 0 0 1.000000
0.031681 -0.013657 0.324663 -0.187563 -0.972399 0.138785 49 255 255 1.000000
0.106284 0.028124 -0.188155 0.085794 -0.988599 0.123742 255 255 255 1.000000
0.441277 0.016950 -0.202440 -0.664817 -0.729615 0.160250 255 255 255 1.000000
0.000297 -0.013657 0.269142 -0.094767 -0.993027 0.070122 49 255 255 1.000000
-0.020680 0.017890 0.115126 -0.027547 -0.997394 0.066686 255 255 255 1.000000
0.348057 -0.019693 -0.025039 0.209483 -0.838743 0.502621 49 255 255 1.000000
0.211595 0.016810 0.309480 0.641448 0.704743 0.303121 49 255 255 1.000000
-0.506535 0.002116 0.046916 -0.000000 -1.000000 -0.000000 255 255 255 1.000000
-0.170724 -0.016277 -0.004558 0.000000 1.000000 0.000000 255 255 255 1.000000
-0.057540 0.013439 0.230059 0.613573 -0.714293 -0.336622 255 255 255 1.000000
-0.226605 -0.016277 0.002890 0.000000 1.000000 0.000000 255 255 255 1.000000
-0.049638 -0.004462 0.248119 0.706406 0.581933 -0.402921 255 255 255 1.000000
0.210367 -0.023891 -0.044405 -0.015967 0.997275 -0.072022 0 0 0 1.000000
0.076300 -0.023891 -0.149072 0.041009 0.997407 0.059148 0 0 0 1.000000
0.024294 0.017890 0.316084 -0.197983 0.969196 0.146496 49 255 255 1.000000
0.115346 0.013487 0.152440 -0.294714 -0.742360 0.601702 255 255 255 1.000000
-0.266642 0.002116 0.084391 0.000000 1.000000 0.000000 86 86 86 1.000000
0.051754 -0.018216 -0.178255 -0.349486 -0.813107 -0.465528 49 255 255 1.000000
0.007495 -0.001694 0.135768 0.379559 -0.000000 -0.925167 255 255 255 1.000000
-0.074522 0.009660 0.154250 -0.951214 0.000000 0.308531 255 255 255 1.000000
0.433634 0.012530 -0.236806 0.676887 0.660466 -0.324975 49 255 255 1.000000
0.012790 0.016341 -0.094800 -0.648063 -0.000000 -0.761586 255 255 255 1.000000
-0.185515 0.009793 0.059610 -0.260632 -0.650734 -0.713174 86 86 86 1.000000
-0.359301 0.002116 0.079469 0.000000 1.000000 0.000000 86 86 86 1.000000
-0.363815 -0.015775 0.087090 -0.101105 0.000000 0.994876 86 86 86 1.000000
0.112921 0.017520 -0.228032 -0.327120 0.749102 -0.576055 49 255 255 1.000000
0.264778 -0.023891 -0.040346 0.033178 -0.988181 0.149657 49 255 255 1.000000
-0.508860 -0.005741 0.072350 0.101105 -0.000000 -0.994876 255 255 255 1.000000
-0.088373 0.012972 0.025105 0.240709 -0.705258 -0.666836 255 255 255 1.000000
0.060634 -0.014563 0.012639 0.054110 -0.755759 0.652610 49 255 255 1.000000
0.251253 -0.020190 -0.313035 -0.178358 -0.851225 -0.493563 49 255 255 1.000000
-0.019035 0.023771 -0.126859 0.347887 -0.838010 0.420373 255 255 255 1.000000
0.172959 -0.023891 -0.024801 -0.037311 0.977877 -0.205827 0 0 0 1.000000
-0.317512 -0.016277 0.049424 0.000000 1.000000 0.000000 255 255 255 1.000000
-0.046593 0.028124 -0.054247 0.034941 -0.998663 0.038084 255 255 255 1.000000
-0.144300 0.002116 0.088852 0.000000 1.000000 0.000000 86 86 86 1.000000
0.226465 0.014712 -0.310231 0.258390 -0.704486 0.661011 255 255 255 1.000000
-0.328100 -0.016277 0.059091 -0.000000 -1.000000 -0.000000 86 86 86 1.000000
0.001600 -0.023891 -0.125369 -0.169633 -0.963752 -0.205931 49 255 255 1.000000
-0.057354 -0.013657 0.192246 0.105516 0.991348 -0.078076 255 255 255 1.000000
-0.080685 -0.023891 -0.048101 -0.192829 -0.974519 -0.114584 49 255 255 1.000000
0.143170 0.018754 -0.185197 0.540406 0.000000 0.841404 0 0 0 1.000000
0.084601 0.028124 -0.183145 0.115568 -0.979214 0.166685 255 255 255 1.000000
0.151785 -0.018596 -0.001372 -0.073311 0.819638 -0.568171 0 0 0 1.000000
0.454491 0.001467 -0.139717 -0.841739 0.526131 -0.121087 0 0 0 1.000000
0.066689 0.017890 0.147832 0.061091 0.987115 -0.147889 49 255 255 1.000000
0.181573 0.006880 0.011612 -0.115522 -0.570701 -0.812992 255 255 255 1.000000
-0.291150 0.002116 0.049450 0.000000 1.000000 0.000000 86 86 86 1.000000
0.211929 -0.023891 -0.234441 0.003562 0.999944 0.010004 0 0 0 1.000000
-0.043928 -0.023891 -0.053317 0.019747 0.999573 0.021523 0 0 0 1.000000
-0.447345 -0.016277 0.067016 0.000000 1.000000 0.000000 255 255 255 1.000000
0.183539 -0.015346 -0.050525 0.145442 0.000000 0.989367 0 0 0 1.000000
0.170512 0.028124 -0.211777 0.017370 -0.998658 0.048788 255 255 255 1.000000
-0.000423 -0.011226 0.021373 -0.015195 0.708719 -0.705327 0 0 0 1.000000
0.410791 -0.013452 -0.065980 0.530432 -0.742445 0.409167 49 255 255 1.000000
-0.339838 -0.016277 0.062785 0.000000 1.000000 0.000000 255 255 255 1.000000
0.253194 0.027705 -0.019409 -0.065291 -0.933381 -0.352898 255 255 255 1.000000
0.224066 -0.009738 0.001780 -0.118586 0.681935 -0.721735 0 0 0 1.000000
0.069863 -0.005766 -0.134371 -0.608434 -0.000000 -0.793605 0 0 0 1.000000
-0.597652 0.002116 0.040334 -0.000000 -1.000000 -0.000000 255 255 255 1.000000
0.341888 0.022167 -0.256947 0.537118 -0.000000 -0.843507 255 255 255 1.000000
0.228406 0.003596 0.236638 -0.922894 -0.381960 0.048721 255 255 255 1.000000
-0.106934 0.017890 0.090111 0.210317 -0.963741 0.164226 255 255 255 1.000000
-0.673553 0.002116 0.026991 0.000000 1.000000 0.000000 86 86 86 1.000000
-0.055973 -0.012487 0.075618 0.211487 -0.828262 -0.518899 49 255 255 1.000000
0.113195 0.007681 -0.164415 0.577330 0.000000 0.816511 0 0 0 1.000000
0.290407 0.005892 -0.336724 0.031642 0.557175 -0.829792 49 255 255 1.000000
-0.327016 -0.016277 0.028249 0.000000 1.000000 0.000000 255 255 255 1.000000
0.004932 0.017890 0.273001 -0.077050 0.995396 0.057012 49 255 255 1.000000
0.419498 -0.012403 -0.074448 0.575907 -0.723968 0.379739 49 255 255 1.000000
-0.655224 -0.016277 0.039271 -0.000000 -1.000000 -0.000000 86 86 86 1.000000
-0.076426 -0.010113 0.151662 -0.952708 0.000000 0.303886 255 255 255 1.000000
0.113358 0.006899 0.145202 -0.351644 -0.558319 0.751416 255 255 255 1.000000
-0.223334 -0.016277 0.068794 -0.000000 -1.000000 -0.000000 86 86 86 1.000000
0.399221 -0.023891 -0.080530 0.231849 -0.957237 0.173039 49 255 255 1.000000
0.048270 0.010888 0.155141 -0.380734 0.000000 0.924685 0 0 0 1.000000
0.331767 -0.017387 -0.314440 -0.185074 0.801216 0.569034 0 0 0 1.000000
-0.079668 -0.006967 0.057315 -0.143237 0.667499 0.730704 255 255 255 1.000000
0.453371 -0.003512 -0.151236 -0.808139 0.585698 -0.062209 0 0 0 1.000000
0.170165 0.009526 0.369751 0.552389 0.494824 0.670832 49 255 255 1.000000
-0.425537 0.002116 0.067817 0.000000 1.000000 0.000000 86 86 86 1.000000
-0.109297 0.028124 -0.026335 0.270628 -0.958179 0.093029 255 255 255 1.000000
-0.782686 -0.013012 0.044522 0.101105 -0.000000 -0.994876 255 255 255 1.000000
-0.001961 0.018384 -0.147200 -0.402108 0.757069 -0.514932 49 255 255 1.000000
0.088568 -0.023891 -0.017458 0.023957 -0.979295 0.201015 49 255 255 1.000000
0.208432 -0.003332 0.200643 -0.730775 0.556538 0.395264 255 255 255 1.000000
0.425463 0.000812 -0.065252 0.696105 -0.529684 0.484636 49 255 255 1.000000
-0.012871 0.028124 -0.031477 0.000725 0.999917 0.012867 49 255 255 1.000000
0.295605 -0.023891 -0.303589 -0.013840 0.966595 0.255933 0 0 0 1.000000
0.197805 0.017890 0.238271 0.167843 0.984436 -0.052110 49 255 255 1.000000
-0.043097 0.021027 0.015789 0.089764 -0.813330 -0.574837 255 255 255 1.000000
-0.001717 0.012290 0.131392 0.379294 -0.000000 -0.925276 255 255 255 1.000000
0.224673 -0.007287 0.249020 0.813959 -0.580324 0.026352 49 255 255 1.000000
0.239620 -0.023891 -0.048983 0.012764 -0.998260 0.057576 49 255 255 1.000000
-0.397805 -0.013409 0.083636 -0.101105 0.000000 0.994876 86 86 86 1.000000
-0.288442 0.002116 0.069486 -0.000000 -1.000000 -0.000000 255 255 255 1.000000
0.059649 0.003207 0.025797 0.068764 0.524686 0.848514 49 255 255 1.000000
0.431629 0.027136 -0.157664 0.422637 0.906077 0.020062 49 255 255 1.000000
-0.024127 -0.006642 0.222763 -0.902953 0.000000 0.429740 255 255 255 1.000000
0.104563 -0.013657 0.373081 0.046211 -0.933983 0.354316 49 255 255 1.000000
0.075468 -0.023891 -0.020936 0.019723 -0.986746 0.161069 49 255 255 1.000000
-0.218884 0.002116 0.007984 -0.000000 -1.000000 -0.000000 255 255 255 1.000000
0.350068 0.007239 -0.007534 -0.271548 -0.579524 -0.768383 255 255 255 1.000000
0.284016 0.028124 -0.050169 0.018511 0.996336 0.083496 49 255 255 1.000000
-0.049049 0.028124 -0.079962 0.140298 -0.978230 0.152916 255 255 255 1.000000
0.123026 0.016374 0.009228 0.079051 0.718766 0.690743 49 255 255 1.000000
-0.741797 -0.009457 0.006796 0.041304 0.000000 0.999147 255 255 255 1.000000
0.045486 0.020387 -0.117469 0.625562 0.000000 0.780175 0 0 0 1.000000
-0.133247 -0.005074 0.079712 -0.756611 -0.461506 -0.463197 49 255 255 1.000000
-0.890586 -0.010956 0.012947 0.041304 0.000000 0.999147 255 255 255 1.000000
0.387244 -0.020484 -0.196138 -0.956745 0.000000 0.290928 0 0 0 1.000000
-0.328724 -0.016277 0.047669 -0.000000 -1.000000 -0.000000 86 86 86 1.000000
-0.495137 0.002116 0.012608 0.000000 1.000000 0.000000 86 86 86 1.000000
0.007974 0.014194 0.266404 -0.864066 0.000000 0.503378 255 255 255 1.000000
0.041299 0.010147 -0.186682 0.440153 -0.632821 0.637026 255 255 255 1.000000
0.056092 0.028124 -0.006016 0.022743 0.962321 0.270962 49 255 255 1.000000
0.008970 -0.023610 0.004013 -0.019659 0.938502 -0.344714 0 0 0 1.000000
-0.545953 -0.016277 0.027060 -0.000000 -1.000000 -0.000000 86 86 86 1.000000
0.026252 0.012386 0.345851 -0.578273 0.696188 0.425350 49 255 255 1.000000
0.183828 -0.014452 0.000815 0.093825 -0.755319 0.648606 49 255 255 1.000000
-0.378438 -0.016277 0.054786 0.000000 1.000000 0.000000 255 255 255 1.000000
-0.488225 0.002116 0.059898 0.000000 1.000000 0.000000 86 86 86 1.000000
-0.233309 -0.016277 0.062939 0.000000 1.000000 0.000000 255 255 255 1.000000
-0.055377 0.014153 0.072175 0.246866 0.756363 -0.605783 49 255 255 1.000000
-0.614799 0.002116 0.040844 0.000000 1.000000 0.000000 86 86 86 1.000000
-0.456575 0.001892 -0.004995 -0.041304 -0.000000 -0.999147 86 86 86 1.000000
-0.456089 0.002116 0.040156 -0.000000 -1.000000 -0.000000 255 255 255 1.000000
0.217864 0.024987 -0.236984 -0.421343 -0.000000 -0.906901 255 255 255 1.000000
-0.014855 -0.007945 -0.145700 0.485554 0.653891 0.580227 0 0 0 1.000000
-0.333914 0.002116 0.068489 0.000000 1.000000 0.000000 86 86 86 1.000000
0.159010 0.017890 0.183695 0.171622 0.959534 -0.223248 49 255 255 1.000000
0.355080 0.023416 -0.246027 -0.662177 0.000000 0.749347 0 0 0 1.000000
0.310572 -0.011719 -0.325028 0.116615 -0.716010 -0.688281 49 255 255 1.000000
-0.483669 -0.016277 0.071497 -0.000000 -1.000000 -0.000000 86 86 86 1.000000
0.311949 0.012175 -0.269783 -0.265152 0.000000 0.964207 0 0 0 1.000000
-0.350395 -0.016277 -0.004086 -0.000000 -1.000000 -0.000000 86 86 86 1.000000
-0.269993 0.002116 -0.005905 -0.000000 -1.000000 -0.000000 255 255 255 1.000000
-0.129175 -0.013657 0.112502 0.434676 0.900300 0.022743 255 255 255 1.000000
0.346560 0.024981 -0.301945 -0.217354 -0.855277 0.470381 255 255 255 1.000000
0.026348 -0.013657 0.128372 -0.062209 0.986636 0.150595 255 255 255 1.000000
-0.020102 -0.023792 -0.117109 -0.209116 -0.947003 -0.243836 49 255 255 1.000000
-0.497575 -0.016277 0.050185 0.000000 1.000000 0.000000 255 255 255 1.000000
0.029940 -0.013657 0.140827 -0.021250 0.998450 0.051442 255 255 255 1.000000
0.450424 0.003558 -0.120459 -0.819237 -0.531632 -0.214982 255 255 255 1.000000
-0.097075 0.017890 0.073671 -0.130561 0.939512 -0.316657 49 255 255 1.000000
-0.046600 -0.001642 0.110068 0.378000 -0.000000 -0.925806 255 255 255 1.000000
0.323097 0.028124 -0.270861 0.011663 0.999291 -0.035811 49 255 255 1.000000
-0.867259 0.002116 0.028893 -0.000000 -1.000000 -0.000000 255 255 255 1.000000
0.435295 0.003837 -0.083104 -0.745718 -0.534433 -0.397852 255 255 255 1.000000
-0.029207 -0.019987 0.011057 -0.048344 -0.855087 0.516226 49 255 255 1.000000
0.286197 0.024354 -0.317600 0.000356 0.846859 -0.531818 49 255 255 1.000000
0.390977 -0.001919 -0.149698 0.990820 0.000000 0.135187 0 0 0 1.000000
-0.171132 -0.016277 0.100909 0.000000 1.000000 0.000000 255 255 255 1.000000
0.020687 0.028124 -0.100858 0.001740 -0.999995 0.002509 255 255 255 1.000000
-0.169015 -0.016277 0.073489 -0.000000 -1.000000 -0.000000 86 86 86 1.000000
0.214163 -0.013420 0.300273 -0.512553 0.833482 -0.206389 255 255 255 1.000000
0.300497 0.028124 -0.302766 -0.024414 -0.966698 0.254752 255 255 255 1.000000
-0.012615 -0.022434 -0.125514 -0.306331 -0.881139 -0.360216 49 255 255 1.000000
0.190366 0.027044 -0.217919 0.466287 0.000000 0.884633 0 0 0 1.000000
0.042428 -0.023891 -0.153257 0.159523 0.964321 0.211276 0 0 0 1.000000
0.204349 -0.013657 0.304268 -0.432127 0.880193 -0.196283 255 255 255 1.000000
-0.624708 0.002116 0.043091 0.000000 1.000000 0.000000 86 86 86 1.000000
0.083584 0.017890 0.354387 -0.030861 0.993623 0.108450 49 255 255 1.000000
-0.113990 0.017890 0.141798 0.354092 -0.922720 -0.152336 255 255 255 1.000000
-0.256025 0.003446 0.003423 -0.975738 0.000000 0.218942 255 255 255 1.000000
0.220177 -0.007731 -0.054078 0.163738 0.000000 0.986504 0 0 0 1.000000
0.431177 0.018751 -0.225044 0.602336 0.759041 -0.247079 49 255 255 1.000000
0.222009 0.016310 -0.054256 0.164651 0.000000 0.986352 255 255 255 1.000000
0.398644 -0.023891 -0.089000 -0.201902 0.968444 -0.146119 0 0 0 1.000000
0.249392 -0.012747 -0.323356 -0.227784 -0.738009 -0.635183 49 255 255 1.000000
-0.000300 -0.021496 -0.033196 -0.052300 -0.000000 -0.998631 0 0 0 1.000000
-0.816586 -0.013253 0.009888 0.041304 0.000000 0.999147 255 255 255 1.000000
-0.417627 -0.016277 0.015947 -0.000000 -1.000000 -0.000000 86 86 86 1.000000
-0.011807 0.005231 -0.077746 0.664605 0.000000 0.747195 0 0 0 1.000000
-0.489209 -0.016277 0.051219 -0.000000 -1.000000 -0.000000 86 86 86 1.000000
-0.132931 0.005746 0.138299 0.808315 -0.482789 -0.336959 255 255 255 1.000000
0.150325 0.000957 -0.267990 0.408371 0.532319 0.741532 0 0 0 1.000000
0.164452 -0.005035 0.210338 0.662187 -0.000000 -0.749339 255 255 255 1.000000
0.074426 0.028124 -0.157848 0.061106 -0.994233 0.088134 255 255 255 1.000000
0.049002 0.017890 0.355358 -0.218781 0.935897 0.276103 49 255 255 1.000000
0.114112 0.000990 0.020492 0.091377 -0.525813 0.845678 49 255 255 1.000000
-0.823798 0.002116 0.038552 -0.000000 -1.000000 -0.000000 255 255 255 1.000000
-0.168969 -0.007695 0.050379 -0.910253 -0.000000 -0.414053 86 86 86 1.000000
-0.280547 -0.016277 0.068458 0.000000 1.000000 0.000000 255 255 255 1.000000
0.367416 0.012943 -0.233802 0.772684 -0.000000 -0.634790 255 255 255 1.000000
-0.590310 0.002116 0.045602 0.000000 1.000000 0.000000 86 86 86 1.000000
0.221774 0.006112 0.312066 -0.836874 -0.386689 -0.387446 255 255 255 1.000000
-0.481301 0.002116 0.046080 -0.000000 -1.000000 -0.000000 255 255 255 1.000000
0.032851 0.028124 -0.024633 -0.009450 -0.995409 -0.095243 255 255 255 1.000000
0.424743 0.023623 -0.104902 -0.508147 -0.834274 -0.213948 255 255 255 1.000000
-0.081506 0.007600 0.206144 -0.746423 0.545054 0.381797 49 255 255 1.000000
-0.262750 0.002116 -0.010299 -0.000000 -1.000000 -0.000000 255 255 255 1.000000
0.055799 0.017890 0.332977 0.035034 -0.999050 -0.025923 255 255 255 1.000000
0.170837 -0.000544 0.014065 0.113587 -0.538320 0.835051 49 255 255 1.000000
0.291856 0.028124 -0.047680 0.024506 0.993570 0.110537 49 255 255 1.000000
0.036462 0.011663 -0.111213 0.631828 0.000000 0.775109 0 0 0 1.000000
0.148225 -0.000324 0.341816 0.597646 0.000000 0.801760 255 255 255 1.000000
0.095681 -0.013657 0.151710 0.098050 -0.966461 -0.237360 49 255 255 1.000000
0.362827 -0.010399 -0.090292 -0.732814 -0.000000 -0.680429 0 0 0 1.000000
-0.048533 -0.013657 0.201580 -0.086225 -0.994231 0.063802 49 255 255 1.000000
-0.044169 0.006090 -0.047606 -0.728545 -0.000000 -0.684998 255 255 255 1.000000
-0.842021 -0.010533 0.010939 -0.041304 -0.000000 -0.999147 86 86 86 1.000000
-0.061187 0.028124 -0.070596 -0.166630 0.973202 -0.158469 49 255 255 1.000000
-0.029421 0.028124 -0.010801 -0.003603 0.983327 0.181809 49 255 255 1.000000
0.083565 -0.000946 0.385726 -0.074978 -0.492022 0.867348 49 255 255 1.000000
0.140346 -0.006691 0.198885 -0.583398 0.000000 0.812187 0 0 0 1.000000
0.043963 -0.002418 0.112053 0.351260 -0.551262 -0.756787 49 255 255 1.000000
-0.804465 -0.016277 0.037911 0.000000 1.000000 0.000000 255 255 255 1.000000
0.121564 -0.004313 -0.243789 0.382142 0.611055 0.693238 0 0 0 1.000000
0.237314 0.014204 -0.055741 -0.172272 -0.000000 -0.985049 0 0 0 1.000000
0.085568 0.014713 -0.212541 -0.371735 0.705509 -0.603382 49 255 255 1.000000
-0.222722 -0.016277 0.082594 -0.000000 -1.000000 -0.000000 86 86 86 1.000000
0.320913 -0.023891 -0.290082 -0.050940 0.983070 0.176006 0 0 0 1.000000
0.235920 0.028124 -0.274088 -0.056308 0.985808 -0.158154 49 255 255 1.000000
-0.836966 0.002116 0.038897 -0.000000 -1.000000 -0.000000 255 255 255 1.000000
-0.997780 -0.005682 0.022663 -0.101105 0.000000 0.994876 86 86 86 1.000000
0.134485 0.008455 -0.045766 -0.120860 -0.000000 -0.992670 0 0 0 1.000000
-0.083776 0.004499 0.092406 0.376927 -0.000000 -0.926243 255 255 255 1.000000
-0.028824 0.008314 0.078754 -0.304827 -0.593476 0.744893 255 255 255 1.000000
-0.444175 0.002116 0.057175 -0.000000 -1.000000 -0.000000 255 255 255 1.000000
-0.399404 0.002116 0.046554 0.000000 1.000000 0.000000 86 86 86 1.000000
0.032210 0.019871 0.014123 -0.043165 -0.772080 -0.634058 255 255 255 1.000000
-0.508855 0.002116 0.055873 -0.000000 -1.000000 -0.000000 255 255 255 1.000000
0.361577 0.028124 -0.268201 0.102767 0.976701 -0.188399 49 255 255 1.000000
-0.025569 0.017890 0.244723 0.172486 -0.976708 -0.127630 255 255 255 1.000000
-0.071858 0.017890 0.092497 -0.025512 -0.997723 0.062433 255 255 255 1.000000
-0.095147 -0.015895 0.017739 0.221431 0.810071 -0.542912 0 0 0 1.000000
0.030210 -0.023891 -0.013609 -0.014139 0.982210 -0.187252 0 0 0 1.000000
-0.116480 0.017890 0.132080 0.303716 -0.944083 -0.128310 255 255 255 1.000000
-0.496718 -0.006737 0.073584 -0.101105 0.000000 0.994876 86 86 86 1.000000
0.271232 0.020381 -0.009699 0.115624 0.781942 0.612534 49 255 255 1.000000
-0.071685 -0.023891 -0.051361 -0.154600 -0.982123 -0.107391 49 255 255 1.000000
-0.161108 -0.016277 0.077400 0.000000 1.000000 0.000000 255 255 255 1.000000
0.008164 0.011745 -0.091593 -0.651200 -0.000000 -0.758906 255 255 255 1.000000
-0.022697 -0.023891 -0.026158 -0.003209 0.998373 -0.056928 0 0 0 1.000000
0.353273 -0.023891 -0.254002 -0.017553 0.998392 0.053893 0 0 0 1.000000
-0.029974 -0.023891 -0.096229 0.143370 0.976157 0.162980 0 0 0 1.000000
-0.240509 -0.016277 -0.002497 -0.000000 -1.000000 -0.000000 86 86 86 1.000000
0.150613 -0.023891 -0.035748 0.021243 -0.995172 0.095819 49 255 255 1.000000
-0.163003 -0.016277 0.061150 0.000000 1.000000 0.000000 255 255 255 1.000000
-0.039485 -0.010607 0.251871 -0.564181 -0.757695 0.328021 49 255 255 1.000000
-0.015504 0.017890 0.239522 -0.035929 0.999001 0.026585 49 255 255 1.000000
0.022587 -0.003228 0.026641 -0.051343 0.577420 -0.814832 0 0 0 1.000000
-0.102865 -0.013657 0.086682 0.156550 0.968836 0.191959 255 255 255 1.000000
-0.262142 0.002116 0.055504 0.000000 1.000000 0.000000 86 86 86 1.000000
0.010352 0.020020 0.016057 -0.036156 -0.774061 -0.632078 255 255 255 1.000000
-0.730341 -0.016277 0.035884 -0.000000 -1.000000 -0.000000 86 86 86 1.000000
0.170879 -0.004723 -0.049297 -0.139105 -0.000000 -0.990278 0 0 0 1.000000
-0.115522 0.011982 -0.052015 -0.655800 0.682228 -0.323250 49 255 255 1.000000
0.024729 -0.013657 0.315349 0.188544 0.972105 -0.139512 255 255 255 1.000000
0.202977 -0.023891 -0.235914 -0.021102 -0.998019 -0.059270 49 255 255 1.000000
0.185447 0.017890 0.314398 -0.368464 -0.902455 -0.223181 255 255 255 1.000000
-0.100455 0.028124 -0.014559 -0.179701 0.982869 0.040942 49 255 255 1.000000
-0.320758 0.002116 0.070945 0.000000 1.000000 0.000000 86 86 86 1.000000
0.198071 -0.013657 0.216473 0.276382 -0.954950 -0.108086 49 255 255 1.000000
-0.039036 0.024578 0.010663 -0.069503 0.863297 0.499888 49 255 255 1.000000
-0.195493 -0.016277 -0.011864 -0.000000 -1.000000 -0.000000 86 86 86 1.000000
-0.095991 0.001448 0.125063 0.966640 -0.000000 -0.256138 0 0 0 1.000000
-0.691234 -0.006306 0.053816 0.101105 -0.000000 -0.994876 255 255 255 1.000000
0.072098 -0.012475 0.370562 0.154225 0.828728 -0.537982 255 255 255 1.000000
-0.064213 -0.005265 0.168266 0.942701 -0.000000 -0.333639 0 0 0 1.000000
0.269191 0.028124 -0.042596 -0.029824 -0.990461 -0.134528 255 255 255 1.000000
-0.058285 0.028124 -0.084612 0.201100 -0.957845 0.205162 255 255 255 1.000000
-0.565527 0.002116 0.066288 -0.000000 -1.000000 -0.000000 255 255 255 1.000000
0.361988 -0.023891 -0.266881 -0.100060 0.977858 0.183799 0 0 0 1.000000
-0.164096 0.002116 0.054519 0.000000 1.000000 0.000000 86 86 86 1.000000
0.177201 0.005409 0.174486 0.537020 0.524166 -0.660954 49 255 255 1.000000
-0.629110 -0.012338 0.002138 -0.041304 -0.000000 -0.999147 86 86 86 1.000000
-0.776257 0.002116 0.026014 -0.000000 -1.000000 -0.000000 255 255 255 1.000000
-0.369839 -0.000677 0.086478 -0.101105 0.000000 0.994876 86 86 86 1.000000
0.360176 -0.023891 -0.069403 -0.064020 0.993811 -0.090785 0 0 0 1.000000
0.085018 -0.006993 0.172599 0.381792 -0.000000 -0.924248 255 255 255 1.000000
0.116918 -0.023891 -0.208692 -0.159690 -0.957048 -0.241989 49 255 255 1.000000
-0.764153 0.002116 0.023235 -0.000000 -1.000000 -0.000000 255 255 255 1.000000
-0.234900 -0.016277 0.047781 -0.000000 -1.000000 -0.000000 86 86 86 1.000000
0.389130 -0.023891 -0.068478 -0.211280 0.956991 -0.198820 0 0 0 1.000000
0.202581 0.000992 0.188286 -0.668833 0.464917 0.580099 255 255 255 1.000000
-0.142645 -0.001969 0.097256 0.871628 0.395668 0.289330 255 255 255 1.000000
-0.441716 0.002116 0.014061 -0.000000 -1.000000 -0.000000 255 255 255 1.000000
-0.753720 0.002116 0.041298 0.000000 1.000000 0.000000 86 86 86 1.000000
-0.122140 0.020655 -0.003035 -0.575928 0.788847 0.214539 49 255 255 1.000000
-0.624972 0.002116 0.032359 -0.000000 -1.000000 -0.000000 255 255 255 1.000000
0.038886 0.021500 -0.112893 -0.630149 -0.000000 -0.776474 255 255 255 1.000000
0.008736 -0.013657 0.302958 -0.254306 -0.948879 0.186967 49 255 255 1.000000
0.365640 -0.021434 -0.291527 0.274344 -0.864185 -0.421805 49 255 255 1.000000
0.098428 -0.023242 -0.003947 -0.042977 0.922525 -0.383538 0 0 0 1.000000
-0.175020 0.005705 0.026550 0.618937 0.576373 -0.533583 86 86 86 1.000000
0.036739 -0.013657 0.334295 0.207134 0.966232 -0.153267 255 255 255 1.000000
0.072565 0.028124 -0.021870 -0.018702 -0.988392 -0.150772 255 255 255 1.000000
-0.768515 -0.013335 0.045962 -0.101105 0.000000 0.994876 86 86 86 1.000000
0.010129 -0.017319 0.014141 -0.034384 0.797906 -0.601801 0 0 0 1.000000
0.087454 0.022476 0.005358 0.056058 0.813638 0.578663 49 255 255 1.000000
0.090173 0.028124 -0.154763 -0.018915 0.999449 -0.027282 49 255 255 1.000000
0.199973 0.016946 0.330694 0.587727 0.708400 0.390827 49 255 255 1.000000
-0.358673 0.002116 0.040990 0.000000 1.000000 0.000000 86 86 86 1.000000
0.164213 0.017388 0.330889 -0.726307 -0.000000 -0.687371 0 0 0 1.000000
0.186719 0.003230 -0.293256 0.361777 -0.535148 0.763370 255 255 255 1.000000
0.008935 0.015790 0.020888 0.039694 0.707802 0.705295 49 255 255 1.000000
-0.802417 -0.016277 0.012986 0.000000 1.000000 0.000000 255 255 255 1.000000
-0.049084 0.015012 -0.032418 0.020939 0.000000 0.999781 255 255 255 1.000000
0.225144 -0.023891 -0.043434 0.020401 -0.995548 0.092024 49 255 255 1.000000
0.051653 -0.012174 -0.121745 -0.621256 -0.000000 -0.783608 0 0 0 1.000000
-0.000610 0.008053 0.315585 0.678443 -0.571836 -0.461214 255 255 255 1.000000
0.158959 -0.008351 0.334800 -0.686190 -0.000000 -0.727422 0 0 0 1.000000
0.352535 -0.021329 -0.080124 0.636394 0.000000 0.771365 0 0 0 1.000000
0.040074 0.004649 0.026825 0.060241 0.535510 0.842378 49 255 255 1.000000
-0.014417 0.021139 -0.075937 0.666339 0.000000 0.745649 0 0 0 1.000000
-0.471423 0.002116 0.039031 -0.000000 -1.000000 -0.000000 255 255 255 1.000000
-0.411456 -0.016277 0.055415 -0.000000 -1.000000 -0.000000 86 86 86 1.000000
0.197743 -0.023891 -0.016129 0.045910 -0.953865 0.296705 49 255 255 1.000000
-0.443259 -0.016277 0.029582 -0.000000 -1.000000 -0.000000 86 86 86 1.000000
0.311049 0.028124 -0.029270 0.061260 0.959110 0.276324 49 255 255 1.000000
0.386627 0.028124 -0.092667 -0.119075 -0.985605 -0.120017 255 255 255 1.000000
0.314256 -0.017391 -0.269354 0.285689 -0.000000 -0.958322 0 0 0 1.000000
0.226847 0.028124 -0.275235 -0.073190 0.975901 -0.205572 49 255 255 1.000000
0.350890 0.028124 -0.262135 -0.034330 -0.993837 0.105404 255 255 255 1.000000
0.055478 0.017890 0.348652 0.143403 -0.974815 -0.170796 255 255 255 1.000000
0.390985 0.024010 -0.055350 -0.381394 -0.839729 -0.386516 255 255 255 1.000000
0.238666 -0.016736 -0.310265 0.214794 0.798869 0.561847 0 0 0 1.000000
0.130711 -0.005966 -0.176559 -0.559177 -0.000000 -0.829048 0 0 0 1.000000
-0.467156 0.002116 0.055100 -0.000000 -1.000000 -0.000000 255 255 255 1.000000
0.057449 0.012963 -0.125764 0.617192 0.000000 0.786813 0 0 0 1.000000
-0.089045 0.009268 -0.087363 0.604907 -0.627775 0.489883 255 255 255 1.000000
0.092202 -0.014553 0.009589 -0.064589 0.756045 -0.651325 0 0 0 1.000000
-0.033138 0.017890 0.095210 -0.097569 -0.966160 0.238780 255 255 255 1.000000
0.092728 0.022060 -0.150224 -0.592120 -0.000000 -0.805850 255 255 255 1.000000
0.049370 0.022041 -0.037511 -0.078106 -0.000000 -0.996945 0 0 0 1.000000
-0.024044 0.006030 0.222875 -0.902860 0.000000 0.429935 255 255 255 1.000000
-0.141845 0.002116 0.067399 -0.000000 -1.000000 -0.000000 255 255 255 1.000000
0.297468 -0.001040 -0.272478 -0.132923 0.000000 0.991126 0 0 0 1.000000
0.029976 0.005342 0.357127 -0.644889 0.508839 0.570264 49 255 255 1.000000
0.438111 0.002571 -0.244577 -0.757829 -0.521963 0.391472 255 255 255 1.000000
-0.574442 -0.016277 0.007163 0.000000 1.000000 0.000000 255 255 255 1.000000
0.215020 -0.021041 -0.011261 -0.081659 0.857841 -0.507387 0 0 0 1.000000
0.443960 0.017070 -0.145134 -0.675818 -0.732559 -0.081407 255 255 255 1.000000
0.329833 0.028124 -0.293374 0.072770 0.972000 -0.223430 49 255 255 1.000000
-0.280457 -0.016277 0.085827 -0.000000 -1.000000 -0.000000 86 86 86 1.000000
-0.020563 -0.023891 0.002804 -0.016371 -0.957280 0.288698 49 255 255 1.000000
-0.214804 0.005248 0.045310 0.810269 -0.568702 -0.141570 86 86 86 1.000000
0.242177 0.019080 -0.253841 0.380861 0.000000 0.924632 0 0 0 1.000000
-0.053592 -0.023891 -0.030434 0.000801 -0.999869 0.016163 49 255 255 1.000000
-0.635623 -0.016277 0.016345 -0.000000 -1.000000 -0.000000 86 86 86 1.000000
0.395325 0.028124 -0.116053 0.101866 0.992589 0.066254 49 255 255 1.000000
-0.387940 0.002116 0.035243 -0.000000 -1.000000 -0.000000 255 255 255 1.000000
0.160514 -0.023891 -0.022081 0.036085 -0.975083 0.218887 49 255 255 1.000000
-0.644016 -0.016277 0.046127 0.000000 1.000000 0.000000 255 255 255 1.000000
-0.023194 -0.000316 0.030375 0.058244 0.555305 -0.829605 0 0 0 1.000000
-0.494678 -0.011967 -0.003420 -0.041304 -0.000000 -0.999147 86 86 86 1.000000
-0.236993 -0.016277 -0.009695 0.000000 1.000000 0.000000 255 255 255 1.000000
0.384385 0.025220 -0.276509 0.343243 0.858967 -0.379947 49 255 255 1.000000
0.008040 0.007072 -0.166375 0.488802 -0.582615 0.649333 255 255 255 1.000000
0.378074 -0.015268 -0.110928 -0.871521 -0.000000 -0.490358 0 0 0 1.000000
-1.033638 -0.003983 0.018861 -0.041304 -0.000000 -0.999147 86 86 86 1.000000
0.437440 -0.012337 -0.111237 -0.652696 0.723404 -0.225112 0 0 0 1.000000
0.407892 -0.023891 -0.182713 0.267044 -0.962892 -0.039078 49 255 255 1.000000
0.241650 0.004104 -0.330703 -0.288683 0.543819 -0.787987 49 255 255 1.000000
0.098122 -0.009620 -0.042239 0.102601 0.000000 0.994723 0 0 0 1.000000
-0.824405 0.001649 0.010211 0.041304 0.000000 0.999147 255 255 255 1.000000
0.030459 -0.005607 0.353438 0.595618 0.631158 -0.496868 255 255 255 1.000000
-0.028630 -0.013657 0.253941 -0.285627 -0.941895 0.176777 49 255 255 1.000000
-0.080159 0.028124 -0.027581 -0.113665 0.992963 -0.033232 49 255 255 1.000000
0.131774 0.017890 0.365758 0.108038 0.947519 0.300890 49 255 255 1.000000
0.022360 0.017082 0.285962 -0.844859 0.000000 0.534989 255 255 255 1.000000
0.247908 0.020024 -0.318104 -0.210709 0.784824 -0.582797 49 255 255 1.000000
-0.104695 0.002832 0.100323 -0.887663 -0.000000 -0.460493 255 255 255 1.000000
0.214084 0.028124 -0.249531 -0.034697 0.994635 -0.097456 49 255 255 1.000000
-0.654713 -0.005859 0.057527 0.101105 -0.000000 -0.994876 255 255 255 1.000000
0.187244 0.017337 0.345726 0.473154 0.782876 0.404018 49 255 255 1.000000
-0.786312 0.002116 0.018432 0.000000 1.000000 0.000000 86 86 86 1.000000
-0.722630 -0.006181 0.006004 -0.041304 -0.000000 -0.999147 86 86 86 1.000000
0.432166 -0.018606 -0.120449 0.547438 -0.821092 0.161613 49 255 255 1.000000
0.362122 0.028124 -0.258834 -0.074776 -0.985274 0.153767 255 255 255 1.000000
-0.087613 -0.013656 0.090599 -0.297380 0.000000 0.954759 0 0 0 1.000000
0.196669 0.006104 -0.222289 -0.456082 -0.000000 -0.889938 255 255 255 1.000000
-0.886408 0.002116 0.013051 -0.000000 -1.000000 -0.000000 255 255 255 1.000000
0.149669 -0.006395 0.165641 -0.411682 0.668788 0.619065 255 255 255 1.000000
0.189450 0.015109 0.293330 -0.925455 -0.000000 -0.378858 0 0 0 1.000000
0.022552 0.017890 0.299511 0.095588 -0.992905 -0.070730 255 255 255 1.000000
0.321288 0.028124 -0.302574 0.075451 0.958440 -0.275137 49 255 255 1.000000
-0.074726 -0.023891 -0.019332 0.051259 0.995286 -0.082336 0 0 0 1.000000
0.068972 0.017890 0.360472 -0.115002 0.961257 0.250518 49 255 255 1.000000
0.358473 -0.021068 -0.033171 0.253770 -0.859570 0.443554 49 255 255 1.000000
0.374677 -0.010172 -0.027918 0.401954 -0.691946 0.599703 49 255 255 1.000000
0.043522 0.017890 0.331866 -0.123493 0.988129 0.091377 49 255 255 1.000000
-0.508249 0.002116 0.069977 0.000000 1.000000 0.000000 86 86 86 1.000000
0.307135 0.025611 -0.312932 -0.078713 -0.865098 0.495388 255 255 255 1.000000
0.033511 0.017890 0.139314 0.033494 0.996144 -0.081083 49 255 255 1.000000
-0.243024 0.002116 0.043054 -0.000000 -1.000000 -0.000000 255 255 255 1.000000
0.187609 -0.003674 0.238690 0.986641 -0.000000 -0.162910 255 255 255 1.000000
-0.820017 0.002116 0.023479 0.000000 1.000000 0.000000 86 86 86 1.000000
-0.123294 -0.010051 0.011778 0.608624 0.696204 -0.380627 0 0 0 1.000000
0.023583 0.017890 0.128386 -0.057171 -0.988725 0.138399 255 255 255 1.000000
0.183469 -0.012444 -0.278024 -0.299437 -0.731227 -0.612898 49 255 255 1.000000
-0.666220 -0.016277 0.050100 -0.000000 -1.000000 -0.000000 86 86 86 1.000000
-0.703867 -0.007971 0.052532 -0.101105 0.000000 0.994876 86 86 86 1.000000
0.161659 0.028124 -0.231004 -0.087933 0.980539 -0.175533 49 255 255 1.000000
0.076053 -0.023891 -0.011049 0.024410 -0.969247 0.244877 49 255 255 1.000000
-0.081613 -0.002954 0.206488 -0.753634 -0.534044 0.383187 49 255 255 1.000000
-0.157277 0.002116 -0.016264 -0.000000 -1.000000 -0.000000 255 255 255 1.000000
0.056489 0.012196 0.019634 0.060730 0.652367 0.755466 49 255 255 1.000000
0.409519 0.014034 -0.058858 -0.557625 -0.686215 -0.467080 255 255 255 1.000000
-0.396019 0.002116 0.011704 0.000000 1.000000 0.000000 86 86 86 1.000000
0.164363 0.028124 -0.216401 -0.039485 0.994081 -0.101210 49 255 255 1.000000
-0.990645 0.002116 0.020688 -0.000000 -1.000000 -0.000000 255 255 255 1.000000
-0.050156 0.012742 0.241342 -0.625208 0.695647 0.353822 49 255 255 1.000000
0.091574 0.001712 0.023114 0.082200 -0.519861 0.850287 49 255 255 1.000000
0.194981 -0.002152 0.353694 0.699149 -0.394323 0.596406 49 255 255 1.000000
-0.209588 -0.016277 0.018215 -0.000000 -1.000000 -0.000000 86 86 86 1.000000
0.168360 -0.004924 0.173165 0.474550 -0.628575 -0.616195 49 255 255 1.000000
-0.153936 0.002116 0.086368 -0.000000 -1.000000 -0.000000 255 255 255 1.000000
0.431328 0.023159 -0.118367 -0.538971 -0.825524 -0.167392 255 255 255 1.000000
-0.257451 0.002116 0.028492 0.000000 1.000000 0.000000 86 86 86 1.000000
0.422055 -0.020661 -0.225936 -0.476784 0.853319 0.211005 0 0 0 1.000000
0.083020 0.017890 0.147202 0.092511 0.970200 -0.223951 49 255 255 1.000000
-0.176775 -0.016277 0.078953 -0.000000 -1.000000 -0.000000 86 86 86 1.000000
0.396915 -0.010014 -0.044421 -0.499797 0.687562 -0.526746 0 0 0 1.000000
-0.216914 -0.016277 0.047035 -0.000000 -1.000000 -0.000000 86 86 86 1.000000
0.018859 -0.001356 -0.034551 -0.062785 -0.000000 -0.998027 0 0 0 1.000000
-0.418624 -0.011695 -0.006564 0.041304 0.000000 0.999147 255 255 255 1.000000
-0.213026 -0.002748 0.054980 0.813707 -0.000000 -0.581275 86 86 86 1.000000
0.333321 0.028124 -0.050189 -0.028820 -0.991095 -0.129999 255 255 255 1.000000
0.374705 -0.023642 -0.278409 -0.209043 0.941565 0.264116 0 0 0 1.000000
-0.687624 -0.016277 0.008489 -0.000000 -1.000000 -0.000000 86 86 86 1.000000
-0.104132 0.026970 0.007589 -0.176033 0.914631 0.363954 49 255 255 1.000000
-0.310438 0.002116 0.038213 -0.000000 -1.000000 -0.000000 255 255 255 1.000000
0.390924 -0.014077 -0.149416 0.990462 0.000000 0.137788 0 0 0 1.000000
0.085567 -0.009329 0.138380 -0.256648 0.739761 0.622002 255 255 255 1.000000
-0.680630 -0.016277 0.004641 -0.000000 -1.000000 -0.000000 86 86 86 1.000000
0.022067 -0.023891 -0.012169 -0.013192 0.981113 -0.192984 0 0 0 1.000000
0.362097 0.026055 -0.089438 0.725767 0.000000 0.687940 255 255 255 1.000000
-0.021398 -0.014879 0.017795 -0.039793 -0.776354 0.629039 49 255 255 1.000000
0.005518 0.023169 -0.144987 0.341464 -0.830297 0.440464 255 255 255 1.000000
-0.611797 -0.016277 0.042087 0.000000 1.000000 0.000000 255 255 255 1.000000
-0.178236 -0.005414 -0.016501 -0.041304 -0.000000 -0.999147 86 86 86 1.000000
0.142530 -0.003102 -0.046547 0.124897 0.000000 0.992170 0 0 0 1.000000
-0.498327 -0.016277 0.031708 0.000000 1.000000 0.000000 255 255 255 1.000000
0.351122 0.028124 -0.274556 0.084787 0.975272 -0.204099 49 255 255 1.000000
0.057607 -0.006495 0.371723 -0.321429 -0.667888 0.671275 49 255 255 1.000000
0.192362 -0.013657 0.224023 0.154163 -0.986885 -0.047863 49 255 255 1.000000
0.365587 0.028124 -0.063463 -0.109499 -0.983904 -0.141216 255 255 255 1.000000
0.184171 0.001066 0.305436 0.880477 0.000000 0.474088 255 255 255 1.000000
0.185457 0.013410 0.185659 -0.445395 -0.744365 0.497537 255 255 255 1.000000
-0.038254 0.027179 -0.106525 0.274831 -0.911906 0.304789 255 255 255 1.000000
0.206366 0.028124 -0.051866 0.001585 0.999973 0.007149 49 255 255 1.000000
-0.012619 -0.000906 0.238408 -0.889686 0.000000 0.456574 255 255 255 1.000000
-0.014050 0.011910 -0.146528 0.472280 -0.656019 0.588719 255 255 255 1.000000
0.252708 0.028124 -0.046289 0.020065 0.995694 0.090508 49 255 255 1.000000
0.392752 -0.023891 -0.128660 0.054440 -0.997889 0.035408 49 255 255 1.000000
-0.335389 0.002116 0.049990 0.000000 1.000000 0.000000 86 86 86 1.000000
0.120795 0.028124 -0.208196 -0.112278 0.978007 -0.175774 49 255 255 1.000000
0.185008 -0.009713 0.232010 0.968044 -0.000000 -0.250780 255 255 255 1.000000
0.010570 0.007650 0.096952 -0.387253 -0.583518 0.713822 255 255 255 1.000000
-0.253096 0.002116 0.085841 -0.000000 -1.000000 -0.000000 255 255 255 1.000000
0.192507 0.028124 -0.050708 -0.001247 -0.999983 -0.005625 255 255 255 1.000000
0.198257 -0.013657 0.283121 -0.404085 0.906837 -0.119842 255 255 255 1.000000
0.406101 0.028124 -0.171137 -0.263659 -0.964509 0.014356 255 255 255 1.000000
-0.828048 -0.009915 0.010362 0.041304 0.000000 0.999147 255 255 255 1.000000
-0.660936 -0.012268 0.056895 -0.101105 0.000000 0.994876 86 86 86 1.000000
-0.051997 0.005614 0.107504 0.377844 -0.000000 -0.925869 255 255 255 1.000000
0.077153 0.028124 -0.033941 -0.011446 -0.998601 -0.051630 255 255 255 1.000000
0.108091 0.016239 0.152796 -0.241149 -0.817451 0.523088 255 255 255 1.000000
-0.004903 -0.023891 -0.012814 0.009806 -0.984708 0.173938 49 255 255 1.000000
0.321404 0.022955 -0.266735 0.351626 -0.000000 -0.936141 255 255 255 1.000000
0.258811 0.025548 -0.265374 0.352897 0.000000 0.935662 0 0 0 1.000000
-0.200184 0.008928 0.022823 -0.305705 0.634954 -0.709491 86 86 86 1.000000
0.399980 0.028124 -0.087212 -0.215325 -0.964445 -0.153238 255 255 255 1.000000
-0.102347 -0.004318 0.176651 -0.746328 -0.566806 0.348892 49 255 255 1.000000
0.274559 -0.023891 -0.051529 -0.014314 0.997811 -0.064567 0 0 0 1.000000
0.222467 0.015418 0.271458 0.723004 0.676356 0.140739 49 255 255 1.000000
0.161409 0.017890 0.340886 -0.105239 -0.974052 -0.200369 255 255 255 1.000000
0.346209 -0.023891 -0.067857 0.025108 -0.998465 0.049363 49 255 255 1.000000
-0.314411 -0.016277 0.019338 -0.000000 -1.000000 -0.000000 86 86 86 1.000000
-0.173988 0.008119 0.051557 -0.684496 -0.619650 -0.384057 86 86 86 1.000000
0.093140 0.028124 -0.181816 -0.094078 0.986275 -0.135690 49 255 255 1.000000
0.192255 0.008946 0.256587 0.998798 0.000000 0.049018 255 255 255 1.000000
0.209513 -0.013657 0.287512 -0.444437 0.884400 -0.142520 255 255 255 1.000000
0.136307 0.017890 0.195549 0.005351 0.999902 -0.012953 49 255 255 1.000000
-0.351928 0.002116 0.030336 0.000000 1.000000 0.000000 86 86 86 1.000000
0.181911 -0.013657 0.215642 -0.061357 0.996077 0.063770 255 255 255 1.000000
-0.603248 -0.005497 0.062757 0.101105 -0.000000 -0.994876 255 255 255 1.000000
0.124460 -0.023891 -0.014272 0.032482 -0.966190 0.255778 49 255 255 1.000000
-0.165215 0.002116 0.077869 0.000000 1.000000 0.000000 86 86 86 1.000000
0.104160 -0.002336 0.019330 -0.085270 0.565049 -0.820639 0 0 0 1.000000
0.200588 0.009275 0.008020 -0.119216 -0.608364 -0.784653 255 255 255 1.000000
0.063900 -0.018219 -0.186672 -0.344964 -0.812856 -0.469323 49 255 255 1.000000
-0.045212 -0.020381 0.010705 0.082581 0.865449 -0.494145 0 0 0 1.000000
-0.084787 -0.023891 -0.026030 0.134036 0.990434 0.032786 0 0 0 1.000000
-0.102993 -0.013657 0.126589 -0.091437 -0.994893 0.042746 49 255 255 1.000000
0.105669 -0.023891 -0.027452 0.022667 -0.991307 0.129604 49 255 255 1.000000
-0.931637 -0.004002 0.014644 -0.041304 -0.000000 -0.999147 86 86 86 1.000000
-0.137140 -0.003230 -0.006994 -0.789141 -0.580398 0.200985 49 255 255 1.000000
-0.765874 -0.010410 0.007791 0.041304 0.000000 0.999147 255 255 255 1.000000
-0.020685 0.010828 0.122380 -0.378747 0.000000 0.925500 0 0 0 1.000000
0.206107 -0.009402 0.206539 0.630838 -0.719250 -0.291072 49 255 255 1.000000
-0.195343 -0.008974 0.066044 0.164354 -0.000000 -0.986401 86 86 86 1.000000
-0.038544 -0.023605 -0.104765 -0.226668 -0.939502 -0.256821 49 255 255 1.000000
-0.014017 -0.005473 -0.032977 -0.043487 -0.000000 -0.999054 0 0 0 1.000000
-0.305893 0.002116 0.005283 0.000000 1.000000 0.000000 86 86 86 1.000000
-0.011402 0.003875 0.126790 0.379015 -0.000000 -0.925391 255 255 255 1.000000
-0.966511 -0.008549 0.016086 0.041304 0.000000 0.999147 255 255 255 1.000000
0.361497 0.008909 -0.088736 -0.719923 -0.000000 -0.694054 0 0 0 1.000000
-0.220157 0.002116 0.027617 -0.000000 -1.000000 -0.000000 255 255 255 1.000000
-0.090415 0.009179 0.053666 0.148832 -0.569022 0.808742 255 255 255 1.000000
0.109107 0.017890 0.368974 0.053543 0.956745 0.285958 49 255 255 1.000000
0.151411 0.017890 0.358557 -0.180347 -0.930143 -0.319858 255 255 255 1.000000
-0.942083 -0.005539 0.028323 -0.101105 0.000000 0.994876 86 86 86 1.000000
-1.004527 -0.015502 0.017657 -0.041304 -0.000000 -0.999147 86 86 86 1.000000
-0.207982 0.002116 -0.008707 0.000000 1.000000 0.000000 86 86 86 1.000000
0.032486 0.017890 0.307913 -0.058619 0.997338 0.043375 49 255 255 1.000000
