ply
format ascii 1.0
element vertex 1283
property float x
property float y
property float z
property uchar red
property uchar green
property uchar blue
end_header
0.198081 -0.244563 0.047707 76 0 153
-0.333358 0.674522 0.166522 0 255 0
-0.053679 0.383683 0.128125 0 255 0
-0.067261 0.569735 0.212694 0 255 0
0.065680 0.661222 0.115615 0 255 0
0.066653 -0.062915 0.461081 153 0 76
0.133279 -0.452173 0.518104 76 0 153
0.064513 -0.179100 -0.072355 153 0 76
0.017542 0.132178 -0.657409 153 0 76
0.102733 0.527843 0.139053 0 255 0
0.160794 -0.044247 -0.578911 153 0 76
0.086103 -0.144007 -0.321450 153 0 76
-0.079843 -0.064044 -0.247277 153 0 76
0.174080 -0.129790 0.011614 153 0 76
0.055884 0.134324 0.151716 76 0 153
0.642710 0.601245 0.209382 0 255 0
-0.435808 0.503179 0.087943 0 255 0
-0.241801 -0.147610 -0.049445 76 0 153
-0.072188 0.047791 -0.536382 153 0 76
0.144658 0.624344 0.040493 0 255 0
-0.162020 0.615741 0.187588 0 255 0
0.154910 -0.195898 -0.390517 153 0 76
0.004780 0.133446 0.218675 76 0 153
-0.119084 -0.218038 0.401524 76 0 153
0.121897 0.014288 0.205296 153 0 76
0.003739 -0.020454 -0.436960 153 0 76
-0.020538 -0.119533 0.725879 153 0 76
-0.092685 -0.447680 0.797035 76 0 153
-0.386593 0.691747 0.150269 0 255 0
-0.024074 0.181233 0.008761 0 255 0
0.052552 0.354584 0.083627 0 255 0
0.089773 -0.094930 0.107951 153 0 76
-0.531542 0.517225 0.215466 0 255 0
0.415593 0.609663 0.215060 0 255 0
0.502458 0.616905 0.223248 0 255 0
0.176934 -0.018410 0.350239 76 0 153
-0.219086 -0.057949 -0.645330 153 0 76
0.091587 -0.117225 -0.725312 153 0 76
-0.006306 0.065718 0.346004 153 0 76
-0.177452 -0.106705 -0.006943 153 0 76
-0.101584 0.031396 -0.221946 153 0 76
0.083010 -0.151473 -0.178071 153 0 76
0.054445 -0.039113 -0.616062 153 0 76
0.035904 0.210373 0.026833 153 76 0
0.281766 0.563832 0.120202 0 255 0
0.012702 -0.288452 -0.236248 153 0 76
-0.199155 -0.453079 0.666167 76 0 153
-0.015645 -0.023695 0.413936 153 0 76
-0.083911 -0.456053 0.541403 76 153 0
-0.014667 -0.288455 0.153334 153 0 76
-0.219086 -0.019353 -0.566538 153 0 76
0.628876 0.488530 0.136013 0 255 0
-0.182164 -0.054880 0.383665 76 0 153
-0.076895 -0.399599 0.812989 76 0 153
-0.079069 0.005984 -0.737339 153 0 76
0.290651 0.644649 0.034971 0 255 0
-0.207736 -0.052349 -0.742861 153 0 76
0.164720 -0.172215 -0.347552 153 0 76
-0.219086 0.000688 -0.656218 153 0 76
-0.164095 -0.267199 -0.700988 153 0 76
-0.043928 0.097170 0.333132 76 0 153
0.112123 -0.438497 0.676480 76 153 0
0.157373 -0.095826 0.560730 153 0 76
-0.152064 -0.021119 -0.127681 153 0 76
-0.063773 -0.044750 0.298779 153 0 76
-0.032687 -0.286082 -0.265413 153 0 76
0.029491 0.112782 0.283470 76 0 153
0.090665 -0.394916 0.658902 153 0 76
-0.061771 -0.277070 0.538242 153 0 76
0.116857 -0.477412 0.798900 76 0 153
-0.022460 -0.203281 -0.764262 153 0 76
-0.253140 0.625243 0.118821 0 255 0
0.020175 -0.287468 -0.951388 153 0 76
0.010066 -0.059838 -0.310610 153 0 76
0.458837 0.690450 0.058110 0 255 0
-0.093692 -0.116291 -0.675830 153 0 76
0.038041 -0.452631 0.786524 76 153 0
-0.002057 0.110572 -0.742861 153 0 76
0.199901 0.042555 0.164458 76 0 153
-0.175353 -0.135177 -0.405980 153 0 76
-0.165979 -0.266111 -0.655857 153 0 76
-0.076098 -0.059163 0.183908 153 0 76
-0.093885 -0.114826 -0.748331 153 0 76
-0.612761 0.649620 0.022302 0 255 0
0.400431 0.597778 0.128813 0 255 0
0.081814 -0.268921 0.159075 153 0 76
-0.013721 0.605369 0.048879 0 255 0
0.114979 0.619931 0.069317 0 255 0
0.091490 -0.270484 0.609700 153 0 76
0.239380 -0.035006 0.153393 76 0 153
-0.011782 -0.347466 -0.501036 153 0 76
0.059629 -0.182848 -0.767325 153 0 76
0.100383 -0.501217 0.790532 76 0 153
0.054826 -0.039405 -0.362730 153 0 76
0.102898 -0.301675 -0.545054 153 0 76
-0.155613 -0.026954 -0.705351 153 0 76
-0.136666 -0.528148 0.526866 76 0 153
-0.093237 -0.119742 -0.861781 153 0 76
-0.151167 -0.019950 -0.005107 153 0 76
0.088508 0.519172 0.064861 0 255 0
0.303602 0.541373 0.187845 0 255 0
0.139752 -0.175932 -0.742861 153 0 76
-0.096308 -0.261382 -0.070223 153 0 76
-0.098617 -0.305135 0.462504 153 0 76
0.145073 0.029026 -0.501036 153 0 76
-0.208022 0.048218 0.014322 76 0 153
0.235932 -0.123757 -0.034625 76 0 153
-0.171654 -0.065679 -0.609412 153 0 76
-0.004299 -0.020267 -0.069261 153 0 76
-0.072171 -0.054046 -0.669446 153 0 76
0.174250 -0.192955 0.579632 153 0 76
0.176128 -0.114235 0.051336 153 0 76
0.080615 -0.156055 0.331251 153 0 76
-0.059155 -0.279128 -0.617369 153 0 76
-0.091137 -0.135696 -0.609743 153 0 76
0.196715 0.024571 -0.035266 76 0 153
-0.008936 -0.020877 -0.946914 153 0 76
0.295245 0.598082 0.140412 0 255 0
-0.052565 -0.348303 0.465456 153 0 76
0.067834 0.205966 0.055132 153 76 0
-0.044274 0.058618 -0.236364 153 0 76
0.093322 -0.048777 0.617944 153 0 76
0.058563 0.052613 0.120068 153 0 76
0.115183 0.122981 0.017991 153 76 0
0.110537 -0.297264 -0.519350 153 0 76
0.019180 0.078583 0.366679 76 0 153
-0.111710 -0.082503 -0.267713 76 0 153
-0.026900 0.137972 0.166562 76 0 153
0.217603 -0.048645 -0.666922 153 0 76
0.058115 -0.041930 -0.022005 153 0 76
-0.010448 0.063071 -0.663306 153 0 76
-0.032039 -0.440223 0.552874 76 153 0
-0.449771 0.513513 0.190146 0 255 0
0.149477 -0.020330 -0.505532 153 0 76
-0.084077 -0.288299 0.320840 76 0 153
-0.163792 -0.179240 -0.348461 153 0 76
-0.012599 0.111278 -0.043150 153 76 0
0.048076 -0.191712 0.030467 153 0 76
-0.176942 -0.102828 -0.281290 153 0 76
-0.541671 0.541765 0.227566 0 255 0
-0.065841 -0.179602 0.078855 153 0 76
-0.061772 -0.173804 -0.310610 153 0 76
0.076870 -0.163186 -0.947568 153 0 76
0.457371 0.589937 0.213371 0 255 0
0.020433 0.519001 0.055686 0 255 0
0.323150 0.528655 0.040187 0 255 0
-0.195520 -0.067951 0.367748 76 0 153
-0.095579 -0.261941 -0.574061 153 0 76
-0.108844 -0.034919 0.454276 76 0 153
0.064159 -0.248923 0.397827 76 0 153
-0.459102 0.692400 0.163584 0 255 0
0.078312 0.044434 -0.802512 153 0 76
-0.063424 -0.438708 0.661402 76 153 0
-0.146591 0.074510 0.275477 76 0 153
-0.079208 -0.162723 0.246686 153 0 76
-0.120846 0.549630 0.092887 0 255 0
0.156267 -0.033317 -0.863999 153 0 76
0.028764 -0.409099 0.496617 76 0 153
0.086071 -0.000527 -0.569507 153 0 76
-0.166360 -0.052898 -0.542824 153 0 76
0.108461 -0.296650 0.254387 76 0 153
0.022059 -0.246802 -0.589090 153 0 76
0.217603 -0.024189 -0.650082 153 0 76
-0.312607 0.617909 0.121581 0 255 0
0.009370 -0.204744 -0.365336 153 0 76
-0.173703 -0.147715 -0.005869 153 0 76
0.012337 -0.368396 0.821711 153 0 76
0.385170 0.674161 0.173943 0 255 0
-0.101488 -0.344625 0.788867 153 0 76
0.087571 -0.289728 0.653961 153 0 76
0.140785 -0.444434 0.552900 76 0 153
-0.318705 0.532074 0.185783 0 255 0
-0.004454 0.594677 0.171478 0 255 0
-0.172816 -0.280365 0.168872 76 0 153
-0.155148 0.628177 0.039506 0 255 0
-0.648967 0.527970 0.076866 0 255 0
-0.034010 -0.199242 -0.662408 153 0 76
-0.496005 0.652015 0.004392 0 255 0
0.005024 -0.507248 0.472270 76 0 153
-0.153133 -0.300073 0.116836 76 0 153
-0.132403 0.125802 0.109530 153 76 0
-0.172439 -0.157313 -0.388808 153 0 76
0.019601 0.109476 0.138980 0 255 0
-0.040760 -0.285019 -0.057973 153 0 76
-0.016806 0.568799 0.230433 0 255 0
0.110330 -0.453642 0.714064 76 153 0
-0.149190 0.099893 0.180319 76 0 153
0.537169 0.502171 0.201530 0 255 0
0.615000 0.695603 0.069636 0 255 0
0.029770 -0.025761 0.123238 153 0 76
-0.159128 0.073328 -0.053964 76 0 153
0.035619 -0.340518 -0.572494 153 0 76
0.425455 0.620552 0.051048 0 255 0
0.044576 0.022524 -0.596067 153 0 76
-0.011348 -0.226073 -0.245496 76 0 153
-0.176429 -0.098931 -0.519698 153 0 76
-0.430477 0.514127 0.152852 0 255 0
0.040303 -0.195814 -0.285999 153 0 76
0.135250 -0.282996 -0.697559 153 0 76
-0.002732 0.064087 0.206666 153 0 76
0.029772 0.060266 -0.239458 153 0 76
-0.016314 0.734600 0.072149 0 255 0
0.147467 -0.100443 0.596631 153 0 76
-0.177633 -0.117859 -0.216198 153 0 76
-0.081388 -0.249010 -0.959184 153 0 76
0.163083 -0.315792 0.566924 153 0 76
-0.261025 -0.145266 0.077810 76 0 153
-0.042139 0.605931 0.072774 0 255 0
0.088640 0.015390 -0.959184 153 0 76
-0.095885 -0.410111 0.488083 76 0 153
0.127350 0.538299 0.160889 0 255 0
0.138465 -0.516705 0.555802 76 0 153
-0.219086 -0.066007 -0.691382 153 0 76
-0.087990 -0.267184 -0.709804 153 0 76
-0.435506 0.564566 0.005612 0 255 0
-0.029189 -0.265227 0.387219 76 0 153
0.075338 0.208341 0.133453 153 76 0
0.082230 0.043211 0.309157 153 0 76
-0.071287 -0.439602 0.597382 76 153 0
-0.151988 -0.204918 -0.749540 153 0 76
0.055126 -0.039636 0.029522 153 0 76
-0.175283 0.626171 0.086000 0 255 0
-0.219086 -0.111035 -0.601771 153 0 76
0.107186 -0.153296 0.446424 76 0 153
-0.134561 -0.225359 0.360012 153 0 76
0.059463 -0.042964 -0.086155 153 0 76
-0.039203 -0.028848 0.128815 153 0 76
-0.155083 -0.479084 0.604769 76 0 153
-0.149688 -0.174017 0.418718 76 0 153
0.063905 -0.044216 0.369832 153 0 76
-0.160124 -0.522075 0.739844 76 0 153
0.005092 -0.039539 -0.291652 76 0 153
-0.037195 -0.028016 0.101694 153 0 76
0.110126 -0.437431 0.752833 76 153 0
0.087000 -0.252022 0.570572 153 0 76
-0.212141 0.021309 0.239107 76 0 153
-0.219086 -0.127788 -0.678418 153 0 76
0.112082 -0.247757 -0.934345 153 0 76
0.037278 0.171168 0.023148 0 255 0
-0.168898 -0.059024 0.176513 153 0 76
0.217603 -0.173180 -0.526664 153 0 76
-0.004546 -0.440132 0.559418 76 153 0
-0.085359 0.089052 -0.123623 76 0 153
-0.593900 0.628940 0.223280 0 255 0
0.057313 0.319142 0.122211 0 255 0
0.077794 -0.063956 -0.261386 153 0 76
-0.134342 -0.227915 -0.908804 153 0 76
-0.064373 -0.276967 -0.572644 153 0 76
0.128744 0.593443 0.114054 0 255 0
0.091616 -0.263461 -0.036129 153 0 76
-0.266701 -0.073503 0.099459 76 0 153
0.174234 -0.095683 0.339317 153 0 76
0.003842 -0.020467 -0.026088 153 0 76
0.062621 0.050933 -0.847233 153 0 76
0.239346 0.609234 0.143659 0 255 0
0.242521 -0.065349 0.024826 76 0 153
-0.156015 -0.027924 -0.642787 153 0 76
0.020752 -0.203245 0.045022 153 0 76
-0.142514 -0.217265 -0.455528 153 0 76
0.075120 -0.165467 -0.717179 153 0 76
-0.080618 -0.438515 0.675186 76 153 0
0.128551 -0.438093 0.705417 76 153 0
-0.175170 -0.462163 0.601961 76 0 153
-0.025646 -0.023232 -0.439630 153 0 76
0.189942 -0.061779 -0.152102 76 0 153
0.165376 -0.055307 -0.487857 153 0 76
-0.042999 0.061348 -0.195186 76 0 153
-0.098802 -0.453282 0.739895 76 153 0
-0.190718 -0.484766 0.659772 76 0 153
-0.078551 0.543376 0.100755 0 255 0
-0.025838 -0.202627 0.027430 153 0 76
-0.257185 -0.037342 0.066133 76 0 153
-0.046964 -0.337033 0.078901 76 0 153
0.088819 0.578301 0.198013 0 255 0
-0.083063 -0.156129 -0.312973 153 0 76
0.658835 0.642847 0.047375 0 255 0
-0.055236 0.054812 0.001768 153 0 76
-0.353077 0.564231 0.207275 0 255 0
0.136929 -0.003977 -0.241682 153 0 76
0.069702 -0.082990 -0.287291 76 0 153
0.053836 -0.402107 0.722626 153 0 76
0.086953 -0.266792 -0.521895 153 0 76
0.137256 -0.221535 0.008511 153 0 76
-0.032240 0.320520 0.156439 0 255 0
0.071581 -0.170080 -0.418613 153 0 76
-0.018075 0.026584 -0.245019 76 0 153
0.120560 0.014808 0.400689 153 0 76
-0.050851 0.048001 0.453422 153 0 76
-0.282584 0.569045 0.200418 0 255 0
0.206292 -0.102904 0.335477 76 0 153
-0.116141 -0.438746 0.658647 76 153 0
-0.107976 -0.455356 0.591361 76 153 0
0.085270 0.043560 -0.501036 153 0 76
-0.053827 -0.281335 0.036406 153 0 76
0.142435 -0.011153 0.107751 153 0 76
-0.151591 0.537274 0.167356 0 255 0
-0.054785 0.490546 0.101231 0 255 0
-0.171705 -0.160137 -0.217006 153 0 76
0.164039 -0.329085 0.700383 153 0 76
0.078137 0.097193 -0.605940 153 0 76
0.209417 -0.217553 0.002467 76 0 153
0.442243 0.573171 0.028992 0 255 0
-0.234604 -0.133280 0.278021 76 0 153
-0.165529 -0.240030 -0.501036 153 0 76
0.178029 -0.093405 -0.501036 153 0 76
0.552742 0.707905 0.165664 0 255 0
0.058241 0.635510 0.216915 0 255 0
0.039238 0.032583 0.514915 153 0 76
0.038401 -0.049519 0.482263 153 0 76
0.043499 -0.361348 0.817102 153 0 76
-0.162197 -0.434949 0.775964 76 0 153
-0.176451 -0.099097 -0.047539 153 0 76
-0.125766 -0.047440 -0.595084 153 0 76
0.162553 -0.177445 -0.593037 153 0 76
-0.068783 -0.453003 0.759864 76 153 0
-0.081071 -0.160294 0.289843 153 0 76
-0.129009 0.008927 0.088484 153 0 76
0.057729 -0.362983 0.572418 153 0 76
-0.461273 0.555299 0.216574 0 255 0
0.042900 -0.129461 -0.290080 76 0 153
-0.073762 -0.375825 0.589277 153 0 76
-0.154868 -0.024276 0.384251 153 0 76
0.014833 0.207067 -0.039946 153 76 0
-0.101462 -0.138932 0.467276 76 0 153
-0.185915 -0.139105 0.379363 76 0 153
0.087772 -0.222093 0.763313 153 0 76
-0.112844 -0.262812 0.345479 76 0 153
-0.067463 -0.178029 -0.670895 153 0 76
0.045231 -0.193773 -0.727867 153 0 76
-0.173898 -0.165983 0.578077 153 0 76
-0.212050 0.513539 0.142562 0 255 0
-0.056448 -0.266242 0.694715 153 0 76
0.164406 0.016135 -0.130126 76 0 153
-0.074716 0.046744 -0.430504 153 0 76
-0.090917 -0.296153 0.444622 153 0 76
-0.014229 -0.052800 0.511706 153 0 76
-0.080872 0.137013 0.128099 153 76 0
0.023291 -0.296756 0.331577 76 0 153
0.052181 -0.238151 -0.522883 153 0 76
0.153860 -0.198433 -0.548205 153 0 76
0.041942 0.550656 0.159833 0 255 0
0.018304 -0.436874 0.848474 76 0 153
-0.075896 -0.199468 0.478163 153 0 76
0.189112 0.627112 0.086857 0 255 0
-0.400335 0.544580 0.132227 0 255 0
0.170823 -0.073127 0.409307 153 0 76
-0.219086 -0.044818 -0.526637 153 0 76
0.007373 0.232611 0.001045 153 76 0
-0.092425 -0.125918 0.090002 153 0 76
-0.198938 -0.186046 0.332146 76 0 153
0.204587 0.024188 -0.572017 153 0 76
-0.519986 0.532140 0.004045 0 255 0
0.058836 -0.352633 0.715239 153 0 76
-0.045247 -0.179709 -0.276810 76 0 153
0.190427 -0.251140 -0.552270 153 0 76
0.020980 -0.022724 -0.065721 153 0 76
-0.068738 -0.049572 -0.544853 153 0 76
0.127919 -0.232988 0.322366 153 0 76
0.455853 0.661765 0.024806 0 255 0
-0.043489 0.565878 0.074632 0 255 0
0.074603 -0.059797 -0.388915 153 0 76
0.134536 0.091615 -0.015695 76 0 153
-0.391850 0.520365 0.034567 0 255 0
-0.091339 -0.351757 0.621292 153 0 76
0.498344 0.487184 0.056326 0 255 0
0.475887 0.546902 0.212947 0 255 0
-0.176646 -0.196970 0.544535 153 0 76
0.066671 0.222071 0.149392 153 76 0
-0.009952 -0.188479 -0.278001 76 0 153
0.009961 0.635254 0.156267 0 255 0
0.056955 -0.091043 0.490891 76 0 153
0.519167 0.605439 -0.009789 0 255 0
0.108839 0.025314 0.322867 153 0 76
-0.071000 0.048283 -0.499076 153 0 76
0.019594 -0.272963 0.372840 76 0 153
0.570332 0.484114 0.050759 0 255 0
-0.173283 -0.150900 -0.287263 153 0 76
-0.415165 0.636770 0.011249 0 255 0
-0.069773 -0.373903 0.708337 153 0 76
0.114037 -0.030288 -0.604472 153 0 76
0.078166 0.536367 0.028086 0 255 0
0.061962 -0.044881 -0.848004 153 0 76
-0.182298 -0.525402 0.623900 76 0 153
0.174132 -0.191588 0.340392 76 0 153
-0.073375 0.047300 -0.130304 153 0 76
0.162564 -0.177420 -0.220181 153 0 76
-0.188044 -0.268900 0.140887 76 0 153
-0.442274 0.702420 0.127641 0 255 0
-0.114651 0.021369 -0.450026 153 0 76
0.020700 0.357855 0.161010 0 255 0
-0.058064 0.226798 -0.016901 153 76 0
-0.091209 -0.282207 0.645553 153 0 76
0.382424 0.663439 0.035526 0 255 0
-0.028827 -0.024550 0.037368 153 0 76
-0.161547 -0.404687 0.624166 76 0 153
-0.139080 -0.004198 -0.090036 153 0 76
0.149929 -0.052104 -0.742861 153 0 76
-0.053259 -0.262373 -0.501036 153 0 76
0.091311 0.634916 0.190633 0 255 0
-0.014076 0.029271 -0.631923 153 0 76
-0.034320 0.388510 0.062013 0 255 0
-0.078076 0.508196 0.067366 0 255 0
-0.017788 0.048114 0.476414 153 0 76
-0.062866 -0.044054 -0.381585 153 0 76
0.086237 -0.094872 0.453030 153 0 76
0.178500 0.666985 0.144239 0 255 0
-0.517164 0.480543 0.075375 0 255 0
0.060693 -0.326042 -0.587507 153 0 76
-0.035550 -0.505506 0.492842 76 0 153
0.005261 -0.289432 0.182646 153 0 76
0.153690 -0.198842 -0.463740 153 0 76
0.141190 -0.413260 0.766803 76 0 153
0.165458 -0.516873 0.688282 76 0 153
-0.208446 -0.195393 -0.096781 76 0 153
0.000217 -0.204773 0.331830 153 0 76
0.024528 -0.146883 -0.310610 153 0 76
-0.025901 -0.188612 -0.310610 153 0 76
-0.182096 -0.477052 0.639586 76 0 153
0.165886 0.019504 0.322117 76 0 153
0.208304 0.554555 0.107586 0 255 0
0.633917 0.516806 0.184480 0 255 0
0.538525 0.532942 0.001685 0 255 0
-0.159276 -0.190143 -0.032932 153 0 76
-0.211057 -0.248820 0.070550 76 0 153
0.082284 0.042789 -0.561510 153 0 76
-0.134924 -0.069551 -0.568587 153 0 76
0.072009 -0.056417 -0.688272 153 0 76
-0.049897 0.570267 0.047223 0 255 0
-0.111249 0.216982 0.013806 153 76 0
-0.160705 -0.000623 0.377936 76 0 153
-0.103551 -0.456326 0.518544 76 0 153
0.120074 -0.020205 -0.501036 153 0 76
0.222787 -0.005631 0.199987 76 0 153
0.084413 0.609905 0.178300 0 255 0
0.118813 0.016654 -0.625594 153 0 76
0.107943 0.232367 0.189198 153 76 0
0.174407 -0.098627 -0.057004 153 0 76
0.070825 -0.531717 0.483115 76 0 153
-0.491550 0.703375 0.056322 0 255 0
-0.113258 -0.207853 -0.217482 76 0 153
-0.091838 -0.264811 -0.783774 153 0 76
0.170330 -0.066094 0.337256 153 0 76
-0.006916 -0.205328 -0.918265 153 0 76
-0.082356 -0.440188 0.555419 76 153 0
-0.062997 -0.221285 0.667073 153 0 76
0.407461 0.677886 0.049360 0 255 0
-0.070278 -0.274521 0.145387 153 0 76
-0.032661 -0.042972 -0.310610 153 0 76
0.170898 -0.468371 0.712082 76 0 153
-0.002876 -0.290007 -0.431358 153 0 76
-0.263535 0.527966 0.175332 0 255 0
0.140144 -0.217771 -0.922836 153 0 76
0.081907 0.209057 0.097589 153 76 0
-0.013497 -0.435756 0.490441 76 0 153
0.068089 -0.484153 0.837899 76 0 153
-0.161726 -0.041711 -0.180490 153 0 76
-0.133827 0.002649 -0.201716 153 0 76
0.601670 0.475660 0.131603 0 255 0
0.006809 0.030032 -0.676662 153 0 76
-0.050114 -0.229213 -0.959184 153 0 76
0.238377 -0.169025 0.153294 76 0 153
0.232479 -0.013118 0.053054 76 0 153
0.089976 -0.129460 -0.758790 153 0 76
0.029338 -0.318720 -0.057404 76 0 153
-0.034780 0.026545 -0.572941 153 0 76
-0.407801 0.632022 0.057151 0 255 0
-0.243720 -0.012545 0.016832 76 0 153
0.073646 -0.167388 -0.389813 153 0 76
0.041028 0.459952 0.149019 0 255 0
-0.136889 -0.282906 -0.687174 153 0 76
0.144447 0.050301 -0.501036 153 0 76
0.029954 0.414335 0.158003 0 255 0
-0.175388 -0.339229 0.662730 153 0 76
0.024282 -0.286928 -0.536214 153 0 76
-0.010568 -0.331182 -0.026649 76 0 153
-0.218084 0.017252 -0.615225 153 0 76
0.175652 -0.108082 -0.419096 153 0 76
0.084873 -0.219169 -0.593137 153 0 76
0.113909 -0.505299 0.755059 76 0 153
-0.176095 -0.096392 -0.108581 153 0 76
-0.072750 -0.456496 0.800064 76 0 153
0.038065 0.604402 0.231436 0 255 0
0.174119 -0.108255 0.448300 153 0 76
-0.031647 -0.051126 0.660385 153 0 76
0.476003 0.502557 0.046466 0 255 0
0.138754 -0.102410 -0.742648 153 0 76
0.125273 -0.201399 -0.959184 153 0 76
0.090228 -0.127550 -0.705811 153 0 76
-0.177213 -0.121054 0.060695 153 0 76
0.107286 0.025499 -0.012415 153 0 76
-0.132482 0.004401 -0.828222 153 0 76
0.086619 -0.083179 -0.901379 153 0 76
0.058766 -0.452574 0.790580 76 153 0
-0.428764 0.583478 0.201331 0 255 0
-0.100370 -0.242906 -0.742861 153 0 76
-0.061470 0.145024 -0.014935 153 76 0
-0.063383 -0.325345 -0.508884 153 0 76
-0.337365 0.584267 0.012572 0 255 0
-0.045906 0.689065 0.077959 0 255 0
-0.148657 -0.016678 -0.801843 153 0 76
0.146963 -0.069710 0.553394 153 0 76
-0.106478 0.027640 0.245398 153 0 76
-0.135550 -0.438447 0.680067 76 153 0
0.043953 -0.031636 -0.439813 153 0 76
-0.175208 -0.136278 -0.728691 153 0 76
-0.054785 0.405845 0.123389 0 255 0
-0.260969 -0.131105 0.053488 76 0 153
-0.211131 -0.048998 -0.138112 76 0 153
-0.064096 0.633784 0.075637 0 255 0
-0.166289 -0.173211 -0.814300 153 0 76
-0.128214 -0.235901 -0.241460 153 0 76
-0.070652 -0.173872 -0.791785 153 0 76
0.106400 0.556909 0.049650 0 255 0
0.093265 -0.515857 0.492427 76 0 153
-0.118462 -0.142283 -0.254499 76 0 153
0.069457 -0.053092 -0.535255 153 0 76
0.217603 0.005602 -0.573399 153 0 76
-0.058430 -0.184712 0.379800 153 0 76
0.128009 -0.515545 0.500574 76 0 153
0.150453 -0.288015 0.157672 76 0 153
0.091721 -0.109733 -0.485991 153 0 76
-0.081827 -0.159112 -0.183562 153 0 76
0.018903 -0.458299 0.494251 76 0 153
0.097821 -0.437647 0.786233 76 0 153
-0.088580 -0.307195 0.599299 153 0 76
-0.084956 -0.151560 -0.559806 153 0 76
-0.006528 -0.289526 -0.373112 153 0 76
0.090820 -0.455005 0.616460 76 153 0
-0.089993 -0.086539 -0.781670 153 0 76
-0.076570 0.218512 0.023862 0 255 0
0.151559 -0.023043 -0.013022 153 0 76
-0.142841 -0.267170 -0.501036 153 0 76
0.057313 0.537579 0.112140 0 255 0
-0.256914 -0.097371 -0.030433 76 0 153
-0.113462 0.210391 0.113808 0 255 0
-0.006683 -0.289506 0.099195 153 0 76
0.017579 0.232611 0.236941 153 76 0
0.171573 -0.148837 -0.914175 153 0 76
-0.250368 -0.187886 0.094642 76 0 153
-0.107633 -0.417324 0.506687 76 0 153
-0.048646 -0.033142 -0.173831 153 0 76
0.128110 0.007516 -0.384697 153 0 76
0.102897 -0.479572 0.480647 76 0 153
0.510776 0.709064 0.098950 0 255 0
0.138781 -0.102616 -0.547595 153 0 76
0.021401 -0.264545 0.711507 153 0 76
0.044539 -0.284261 -0.858437 153 0 76
0.029781 -0.318257 0.257064 76 0 153
0.138399 -0.246147 -0.128273 76 0 153
-0.234947 -0.096208 0.295128 76 0 153
0.091316 -0.106655 -0.132740 153 0 76
0.089024 -0.089243 0.061667 153 0 76
0.008383 -0.289021 0.229963 153 0 76
0.074541 -0.057539 0.350475 153 0 76
-0.100393 -0.328535 0.481651 153 0 76
0.086279 -0.382196 0.616029 153 0 76
-0.071264 -0.424820 0.505634 76 0 153
-0.225102 -0.043730 -0.096501 76 0 153
-0.085436 -0.212379 0.623724 153 0 76
0.280161 0.508295 0.144875 0 255 0
-0.082829 -0.156695 0.164676 153 0 76
0.168115 -0.236496 -0.096852 76 0 153
-0.455323 0.666404 0.031999 0 255 0
0.146032 -0.470347 0.607980 76 0 153
-0.089122 -0.063062 0.643926 153 0 76
-0.016553 -0.352383 -0.589227 153 0 76
-0.176188 -0.097100 -0.899753 153 0 76
-0.176456 -0.515012 0.712112 76 0 153
-0.081292 0.111901 0.206499 153 76 0
-0.079283 -0.063314 -0.345988 153 0 76
-0.026838 0.127668 -0.603671 153 0 76
0.099842 -0.257149 -0.702297 153 0 76
-0.658920 0.535642 0.099664 0 255 0
-0.083396 -0.155325 -0.897230 153 0 76
0.612671 0.636124 0.217638 0 255 0
-0.108701 -0.097264 0.658629 153 0 76
0.114760 0.019764 0.277974 153 0 76
-0.097691 0.032910 0.411740 153 0 76
0.679706 0.539955 0.096869 0 255 0
-0.100415 0.085188 -0.667417 153 0 76
-0.126193 0.012512 -0.871740 153 0 76
0.019488 0.061620 -0.373533 153 0 76
0.062167 0.034846 -0.501036 153 0 76
-0.249775 -0.177201 0.167207 76 0 153
-0.261582 -0.127115 0.145515 76 0 153
-0.171741 -0.082004 0.465003 153 0 76
0.134121 -0.000318 0.021589 153 0 76
-0.072774 -0.273487 0.238491 153 0 76
0.542023 0.709212 0.082282 0 255 0
0.054271 -0.038979 -0.821361 153 0 76
-0.105828 -0.033116 0.580473 153 0 76
-0.209614 0.022142 -0.689649 153 0 76
-0.251619 -0.034426 0.181946 76 0 153
0.204595 0.658420 0.059925 0 255 0
0.010242 0.087805 0.187621 153 76 0
-0.083234 0.523103 0.103237 0 255 0
0.040982 0.724291 0.093489 0 255 0
-0.465470 0.599321 0.226124 0 255 0
-0.511093 0.503721 0.034597 0 255 0
-0.048095 -0.032719 -0.937790 153 0 76
-0.161094 -0.127353 0.594715 153 0 76
-0.164236 0.048341 -0.681791 153 0 76
0.217603 -0.193513 -0.656182 153 0 76
0.236419 -0.166483 0.021528 76 0 153
-0.109845 -0.250994 -0.931852 153 0 76
0.038988 -0.343946 0.459566 153 0 76
-0.215866 -0.105477 -0.146955 76 0 153
-0.156535 -0.426101 0.744713 76 0 153
0.111512 0.546346 0.143359 0 255 0
-0.166122 -0.177341 0.405759 153 0 76
-0.193331 0.613559 0.144609 0 255 0
0.085107 0.506300 0.127311 0 255 0
-0.139537 0.527905 0.071114 0 255 0
0.082458 -0.268654 -0.834753 153 0 76
-0.065297 -0.276584 -0.938896 153 0 76
0.170746 -0.070822 -0.324904 153 0 76
-0.085545 -0.177016 0.472857 153 0 76
0.129087 0.211805 0.026334 153 76 0
0.009283 -0.048074 0.660821 153 0 76
0.097275 -0.471990 0.770795 76 0 153
0.095435 0.087206 -0.563434 153 0 76
-0.157861 -0.144066 -0.959184 153 0 76
-0.031564 -0.025684 -0.211391 153 0 76
0.037409 0.210797 -0.026912 153 76 0
0.053174 0.304731 0.137342 0 255 0
-0.104975 -0.254731 -0.804913 153 0 76
0.146134 -0.209964 -0.445542 153 0 76
-0.064962 -0.180277 -0.628702 153 0 76
-0.063865 -0.181118 -0.411085 153 0 76
0.029737 0.341165 0.058709 0 255 0
-0.054819 0.120191 0.037222 153 76 0
0.673138 0.645002 0.152586 0 255 0
-0.356739 0.596503 0.132064 0 255 0
-0.067370 0.210178 0.152803 153 76 0
-0.098506 -0.481458 0.503155 76 0 153
0.027450 -0.024800 -0.644567 153 0 76
-0.110329 0.190776 0.189735 153 76 0
0.067737 -0.222678 0.660222 153 0 76
-0.155299 -0.199744 -0.911156 153 0 76
0.118099 -0.243140 0.037562 153 0 76
0.109151 0.210363 0.188500 153 76 0
-0.088444 0.260327 0.146538 0 255 0
-0.246914 -0.011097 0.142309 76 0 153
0.213331 0.564871 0.137245 0 255 0
-0.662184 0.584062 0.058757 0 255 0
-0.035176 -0.025877 0.379692 153 0 76
-0.197050 0.630475 0.035562 0 255 0
-0.010060 -0.473997 0.490849 76 0 153
0.024907 0.060906 -0.159185 153 0 76
0.167662 -0.186980 0.623346 153 0 76
-0.073476 0.010275 -0.563912 153 0 76
-0.159351 -0.044860 0.443526 153 0 76
0.073273 -0.483946 0.485028 76 0 153
-0.180657 -0.515280 0.751676 76 0 153
-0.163742 -0.046577 -0.401750 153 0 76
0.071907 -0.167790 0.346094 153 0 76
0.009984 -0.204663 -0.555683 153 0 76
-0.127453 0.595293 0.112454 0 255 0
-0.317410 0.677799 0.063594 0 255 0
-0.185804 0.510943 0.114885 0 255 0
0.018065 0.104463 0.313696 76 0 153
-0.453352 0.702562 0.088987 0 255 0
0.171649 -0.074979 0.362615 153 0 76
0.082688 0.029022 -0.742861 153 0 76
0.019473 -0.287561 -0.724182 153 0 76
-0.092641 0.568362 0.154067 0 255 0
-0.056670 0.054059 0.398916 153 0 76
-0.013132 -0.021430 0.185220 153 0 76
0.509269 0.550176 0.219948 0 255 0
-0.000205 -0.290151 -0.852994 153 0 76
-0.057661 -0.205847 0.451252 153 0 76
0.253810 -0.087399 0.099656 76 0 153
-0.134386 -0.111132 0.449380 76 0 153
-0.133210 -0.480443 0.522803 76 0 153
-0.162300 -0.182841 -0.150860 153 0 76
0.031994 -0.285912 -0.566845 153 0 76
-0.341569 0.597260 0.088495 0 255 0
0.031137 -0.517112 0.837029 76 0 153
-0.220619 -0.086040 0.332979 76 0 153
0.148108 -0.018546 -0.808790 153 0 76
-0.043754 0.117901 -0.563679 153 0 76
-0.055988 0.054501 -0.438900 153 0 76
0.000284 -0.205940 -0.498645 153 0 76
-0.063629 0.176626 0.203399 0 255 0
-0.101671 -0.286177 -0.501036 153 0 76
0.499553 0.614068 -0.004650 0 255 0
0.175044 -0.125216 0.407724 153 0 76
0.149703 0.060689 0.279339 76 0 153
0.173433 -0.134709 0.054652 153 0 76
-0.140533 -0.049788 0.540522 153 0 76
0.021881 -0.336825 0.146453 76 0 153
0.427828 0.699434 0.096766 0 255 0
-0.120313 0.640825 0.096375 0 255 0
-0.132294 -0.303455 0.192803 76 0 153
-0.015494 -0.021741 -0.643775 153 0 76
-0.139111 -0.124927 -0.665902 153 0 76
0.241568 -0.076709 0.201926 76 0 153
0.131820 -0.038014 0.537555 153 0 76
0.121484 0.109224 0.071463 76 0 153
0.041007 -0.451819 0.477745 76 0 153
-0.082464 -0.068364 -0.222946 153 0 76
-0.189272 -0.489576 0.569170 76 0 153
0.248493 0.569357 0.136529 0 255 0
-0.108185 0.026330 -0.000405 153 0 76
-0.118644 -0.456585 0.788476 76 0 153
-0.123536 -0.416676 0.774715 76 0 153
-0.094867 0.036550 0.162628 153 0 76
-0.356893 0.608074 0.011376 0 255 0
-0.026178 0.161674 0.181578 153 76 0
-0.156378 -0.086322 -0.233442 76 0 153
0.136581 -0.024896 0.417259 76 0 153
0.023363 -0.439619 0.596134 76 153 0
0.002986 -0.114018 0.609897 153 0 76
-0.123808 -0.028295 -0.959184 153 0 76
-0.087149 0.031622 -0.742861 153 0 76
-0.276783 0.574649 0.087901 0 255 0
0.175227 -0.121081 -0.873226 153 0 76
0.063745 0.014584 -0.528234 153 0 76
-0.114155 0.232611 0.081517 153 76 0
-0.219086 -0.088302 -0.675378 153 0 76
-0.078322 -0.139722 -0.282381 76 0 153
0.063732 0.200620 0.214723 153 76 0
-0.064630 0.644974 0.124678 0 255 0
-0.050744 -0.282612 0.072683 153 0 76
0.036317 -0.285343 -0.219052 153 0 76
0.157202 -0.035574 -0.922094 153 0 76
0.231558 -0.005165 0.086969 76 0 153
0.054717 -0.437333 0.759855 76 153 0
-0.020283 0.152914 0.023509 0 255 0
0.118956 -0.242482 -0.753265 153 0 76
0.068062 0.671227 0.189425 0 255 0
-0.178021 -0.114912 -0.640332 153 0 76
0.189054 -0.445693 0.701905 76 0 153
0.325151 0.568148 0.117723 0 255 0
-0.173856 -0.146548 -0.709241 153 0 76
0.247986 -0.129574 0.125182 76 0 153
-0.162509 -0.182338 -0.683625 153 0 76
-0.039164 -0.028831 -0.621383 153 0 76
0.579100 0.565016 0.233829 0 255 0
-0.012593 0.135892 -0.679964 153 0 76
-0.156458 -0.444636 0.689678 76 0 153
-0.142683 -0.520186 0.786131 76 0 153
0.084931 0.144043 0.000525 153 76 0
-0.172029 -0.090472 0.484556 153 0 76
0.419842 0.636659 0.012740 0 255 0
0.089187 -0.090479 0.033189 153 0 76
-0.144442 -0.214752 0.170859 153 0 76
0.079898 -0.129279 -0.276810 76 0 153
-0.092167 -0.098063 -0.938999 153 0 76
0.226874 -0.177847 0.224971 76 0 153
-0.167284 -0.055128 -0.568013 153 0 76
0.034024 -0.411844 0.475267 76 0 153
-0.173992 -0.080422 -0.322315 153 0 76
0.453865 0.687347 0.126997 0 255 0
0.048657 0.031969 0.427442 76 0 153
0.217603 0.006394 -0.647202 153 0 76
-0.022996 0.636771 0.062527 0 255 0
-0.176955 -0.102929 -0.825973 153 0 76
-0.089589 -0.140375 -0.062974 153 0 76
-0.161766 0.049767 -0.719503 153 0 76
0.492611 0.708652 0.123871 0 255 0
0.147740 -0.275785 -0.509780 153 0 76
0.174949 -0.102746 -0.143103 153 0 76
0.031318 -0.343001 -0.513133 153 0 76
0.450240 0.503141 0.050632 0 255 0
0.083954 0.544469 0.060897 0 255 0
-0.016155 0.307079 0.079900 0 255 0
-0.109347 0.655253 0.140543 0 255 0
-0.047366 0.596166 0.178772 0 255 0
-0.177708 -0.172759 0.541497 153 0 76
0.048972 0.056586 0.066925 153 0 76
0.079997 0.134219 0.083075 153 76 0
-0.066628 -0.276033 -0.875996 153 0 76
-0.124540 0.013780 -0.679570 153 0 76
0.146223 -0.311814 0.527600 153 0 76
-0.035888 -0.501325 0.850427 76 0 153
-0.047804 -0.334340 -0.646497 153 0 76
-0.209281 0.015046 -0.061176 76 0 153
0.048567 0.620203 0.161276 0 255 0
-0.022638 0.109476 0.102310 0 255 0
0.138926 -0.039223 -0.501036 153 0 76
0.035266 0.134985 0.017453 76 0 153
0.125890 0.003641 -0.201177 76 0 153
0.084667 0.041801 -0.291633 153 0 76
-0.078808 0.501717 0.090313 0 255 0
-0.353797 0.677276 0.166400 0 255 0
0.086954 -0.310880 -0.685350 153 0 76
0.010998 -0.115667 -0.301606 76 0 153
0.164951 -0.436449 0.568514 76 0 153
0.221844 -0.049452 0.261538 76 0 153
-0.070198 0.097473 0.149118 153 76 0
0.085294 -0.079979 -0.870776 153 0 76
-0.113769 -0.003974 -0.501036 153 0 76
-0.157144 0.637351 0.111445 0 255 0
0.427674 0.651806 0.071610 0 255 0
0.055213 -0.412791 0.468475 76 0 153
0.002622 0.063840 -0.088007 153 0 76
-0.132403 0.179483 0.162007 153 76 0
0.091037 -0.121402 -0.778496 153 0 76
-0.158634 -0.217715 0.460374 153 0 76
0.085102 -0.442410 0.522470 76 0 153
-0.076110 0.049256 -0.205018 76 0 153
-0.049053 -0.137707 0.733782 153 0 76
0.017309 0.087805 -0.017021 153 76 0
-0.090961 -0.088900 -0.664295 153 0 76
-0.396737 0.580376 0.067247 0 255 0
0.087118 -0.266724 -0.903252 153 0 76
-0.151088 -0.274081 0.265055 76 0 153
0.066623 -0.453625 0.715303 76 153 0
-0.085252 -0.274021 0.574287 153 0 76
0.013304 0.710288 0.168342 0 255 0
-0.564726 0.699708 0.179484 0 255 0
-0.091023 0.039499 -0.030635 153 0 76
-0.085065 -0.074642 -0.841906 153 0 76
-0.217229 0.630149 0.114167 0 255 0
-0.113336 0.022378 -0.507733 153 0 76
-0.040780 0.087805 0.221833 153 76 0
0.114782 -0.500042 0.805985 76 0 153
-0.201774 -0.101140 -0.742861 153 0 76
0.084813 -0.459567 0.509668 76 0 153
0.026303 -0.250687 -0.210269 76 0 153
-0.126983 -0.299191 -0.039281 76 0 153
-0.219086 -0.220733 -0.689136 153 0 76
0.144677 -0.273320 -0.044665 76 0 153
0.027545 -0.452373 0.804979 76 153 0
0.171154 -0.508429 0.660211 76 0 153
0.092350 -0.005345 -0.737821 153 0 76
-0.114848 -0.496682 0.813763 76 0 153
-0.135371 -0.226574 0.058587 153 0 76
0.058871 -0.042510 -0.251749 153 0 76
-0.099786 -0.280945 -0.742861 153 0 76
0.220956 -0.127346 -0.078259 76 0 153
0.066260 0.113798 0.110829 0 255 0
0.137479 -0.405807 0.539836 153 0 76
-0.021541 0.061610 -0.479285 153 0 76
-0.010170 0.597882 -0.018246 0 255 0
0.094822 -0.211535 -0.739549 153 0 76
0.600406 0.697149 0.167960 0 255 0
-0.012218 0.103206 -0.124715 76 0 153
-0.167301 0.046571 -0.621311 153 0 76
-0.165895 -0.187847 0.438251 153 0 76
-0.185922 -0.017383 0.358745 76 0 153
0.028748 0.060401 -0.759525 153 0 76
0.238591 -0.146796 0.188513 76 0 153
-0.079812 0.512915 0.155963 0 255 0
0.158172 -0.475961 0.664828 76 0 153
-0.140064 -0.319850 0.519869 153 0 76
-0.194605 0.050960 0.225698 76 0 153
-0.126164 0.560150 0.179367 0 255 0
0.572327 0.470946 0.142819 0 255 0
-0.043609 0.035250 -0.231316 76 0 153
-0.156435 -0.309407 0.719838 153 0 76
-0.061725 0.175762 0.039497 0 255 0
-0.572909 0.539677 0.221686 0 255 0
0.002625 -0.346851 -0.742861 153 0 76
0.644903 0.661256 0.177726 0 255 0
0.148379 -0.018899 -0.264634 153 0 76
-0.295109 0.502571 0.133710 0 255 0
0.188905 0.571142 0.033485 0 255 0
-0.103398 -0.232507 0.755980 153 0 76
0.027693 -0.067410 0.533463 153 0 76
-0.035360 -0.320695 -0.055159 76 0 153
-0.126900 -0.282110 0.283846 76 0 153
-0.219086 -0.180776 -0.695651 153 0 76
0.067775 0.232611 0.030405 153 76 0
0.334251 0.613689 0.126921 0 255 0
0.173655 -0.143239 0.437293 153 0 76
0.269600 0.626626 0.110118 0 255 0
-0.038748 -0.285284 0.263429 153 0 76
0.020138 -0.233608 0.464796 153 0 76
0.317452 0.509776 0.155401 0 255 0
-0.093911 -0.202345 0.569401 153 0 76
-0.155901 -0.027649 -0.482092 153 0 76
-0.099463 -0.209112 -0.563811 153 0 76
0.172232 -0.143829 -0.182299 153 0 76
-0.015866 -0.204149 -0.222158 153 0 76
0.168366 0.672994 0.108436 0 255 0
0.063686 -0.319822 -0.019051 76 0 153
0.363346 0.572694 0.119294 0 255 0
-0.227106 -0.019175 -0.070457 76 0 153
0.092212 -0.263004 0.049546 153 0 76
0.302482 0.503364 0.089563 0 255 0
0.113891 0.076551 -0.695030 153 0 76
-0.138724 -0.003733 -0.004391 153 0 76
0.003531 0.576889 0.234083 0 255 0
-0.088332 -0.236910 0.557552 153 0 76
0.145725 -0.187372 0.679904 153 0 76
-0.149641 -0.189640 0.678443 153 0 76
-0.150784 -0.019451 -0.557761 153 0 76
0.191678 -0.074454 -0.501036 153 0 76
-0.166064 0.647854 0.051226 0 255 0
-0.014646 0.062518 -0.281940 153 0 76
0.041842 -0.036691 0.431836 153 0 76
0.154167 -0.397020 0.738169 76 0 153
-0.154927 -0.025297 -0.148588 153 0 76
-0.050564 -0.438982 0.824383 76 0 153
-0.144850 -0.409539 0.511990 76 0 153
0.114978 -0.397380 0.791086 76 0 153
-0.049147 0.133945 0.196253 76 0 153
-0.100345 0.024477 0.447384 153 0 76
0.651513 0.624056 0.029848 0 255 0
-0.099308 0.033142 -0.660538 153 0 76
-0.078766 -0.271005 -0.798186 153 0 76
-0.044528 -0.031053 -0.098153 153 0 76
0.098272 -0.009889 -0.527532 153 0 76
0.070366 0.057201 -0.742861 153 0 76
-0.161992 -0.493196 0.666129 76 0 153
0.096093 0.517644 0.088272 0 255 0
-0.168761 -0.167243 -0.255155 153 0 76
0.006424 -0.205132 -0.647593 153 0 76
-0.118257 0.110921 0.195678 76 0 153
0.409607 0.545373 0.204378 0 255 0
-0.057345 -0.495712 0.457196 76 0 153
-0.169570 -0.494348 0.601443 76 0 153
0.107779 -0.031055 -0.243581 76 0 153
0.090274 0.629598 0.170975 0 255 0
-0.034099 0.719172 0.083689 0 255 0
0.032358 -0.309011 -0.090472 76 0 153
0.112468 0.021523 0.164692 153 0 76
0.053315 -0.183537 0.759097 153 0 76
-0.021311 -0.349635 -0.519100 153 0 76
0.217603 -0.186229 -0.716635 153 0 76
-0.096782 -0.455109 0.609029 76 153 0
0.064593 0.014233 -0.584187 153 0 76
-0.048856 0.138247 0.129223 76 0 153
-0.669035 0.556735 0.134070 0 255 0
0.173078 -0.088535 -0.365857 153 0 76
-0.478151 0.521433 0.199521 0 255 0
-0.565070 0.486068 0.169656 0 255 0
-0.160259 -0.275768 -0.034697 76 0 153
-0.010159 -0.437350 0.758606 76 153 0
0.043983 0.666516 0.209170 0 255 0
0.089415 0.117563 0.008750 76 0 153
0.070991 -0.362837 0.480606 153 0 76
0.231147 -0.036586 0.225698 76 0 153
0.046585 0.232611 0.205498 153 76 0
-0.001932 -0.133140 0.738889 153 0 76
-0.114363 0.120621 0.088944 76 0 153
-0.073210 0.673438 0.182353 0 255 0
-0.004382 0.629113 -0.014747 0 255 0
0.078273 -0.196420 -0.243965 76 0 153
-0.037779 -0.372335 0.560742 153 0 76
0.023570 -0.287021 -0.341952 153 0 76
0.129087 0.123103 0.039528 153 76 0
-0.033928 -0.285919 -0.824354 153 0 76
-0.130541 -0.058968 -0.646909 153 0 76
-0.097344 0.062372 -0.163782 76 0 153
0.025136 0.228817 0.022373 153 76 0
0.183087 0.036601 -0.656731 153 0 76
-0.244358 -0.155861 0.235185 76 0 153
0.216751 -0.010008 -0.038467 76 0 153
0.691267 0.582260 0.134247 0 255 0
-0.658109 0.619128 0.055187 0 255 0
-0.238208 0.505871 0.103501 0 255 0
-0.016548 0.123569 0.254870 76 0 153
0.134561 -0.156918 0.423664 76 0 153
0.185327 -0.493595 0.594171 76 0 153
0.085058 0.624090 0.048117 0 255 0
0.000623 0.210618 0.185285 153 76 0
0.030766 0.606561 0.157740 0 255 0
-0.091767 -0.095027 0.029044 153 0 76
-0.095144 0.036337 0.074687 153 0 76
0.207975 -0.163549 0.295254 76 0 153
-0.018526 0.225613 -0.039728 153 76 0
0.437930 0.533353 0.022040 0 255 0
0.024493 -0.023576 -0.303179 153 0 76
-0.051325 -0.035198 -0.903939 153 0 76
0.079606 0.228152 0.080107 153 76 0
-0.054176 0.639143 0.162054 0 255 0
-0.078692 -0.062544 -0.135369 153 0 76
0.090398 -0.217558 0.563363 153 0 76
0.007528 -0.044996 0.493635 153 0 76
0.021502 -0.491307 0.476389 76 0 153
-0.124735 -0.239569 -0.086623 153 0 76
0.119351 -0.508903 0.784924 76 0 153
0.164379 0.047402 -0.734608 153 0 76
-0.013626 -0.021495 -0.926187 153 0 76
-0.039619 -0.285169 0.301433 153 0 76
-0.146535 -0.013913 -0.938709 153 0 76
-0.106599 -0.408128 0.800924 76 0 153
0.486783 0.520673 0.197965 0 255 0
0.176123 -0.111661 0.198104 153 0 76
-0.000654 -0.301579 0.813484 153 0 76
-0.008474 -0.271616 0.381595 76 0 153
-0.196408 0.065555 0.084060 76 0 153
-0.205991 0.051929 0.164594 76 0 153
-0.056227 -0.249631 0.406744 76 0 153
-0.303857 0.682132 0.149360 0 255 0
0.055847 0.053738 0.239099 153 0 76
-0.053940 0.124488 -0.035823 76 0 153
-0.159964 -0.488551 0.770348 76 0 153
-0.052832 -0.281747 -0.115805 153 0 76
-0.108379 -0.317753 0.163307 76 0 153
0.217603 -0.134059 -0.586760 153 0 76
-0.107500 -0.252794 -0.394955 153 0 76
-0.628348 0.596621 0.208623 0 255 0
0.113548 0.232611 0.056136 153 76 0
0.171089 -0.073396 0.303707 153 0 76
0.047162 -0.192414 0.130209 153 0 76
0.089798 -0.264857 -0.795133 153 0 76
0.310109 0.576409 0.203088 0 255 0
0.049025 0.699686 0.138011 0 255 0
-0.047354 -0.113911 -0.310610 153 0 76
-0.081979 -0.158746 -0.871682 153 0 76
0.055156 -0.039658 -0.939768 153 0 76
-0.218741 0.540386 0.043824 0 255 0
-0.018997 -0.287884 -0.949779 153 0 76
0.148162 -0.018617 -0.304382 153 0 76
-0.133762 -0.228671 -0.191238 153 0 76
-0.079883 0.102115 0.072523 153 76 0
-0.080908 -0.160507 -0.402240 153 0 76
-0.085834 -0.248359 -0.501036 153 0 76
0.655074 0.520335 0.065314 0 255 0
0.014122 0.041868 0.500405 153 0 76
0.013809 0.545515 0.074767 0 255 0
-0.121787 -0.505364 0.773877 76 0 153
0.019662 0.486198 0.056852 0 255 0
0.682836 0.638376 0.129756 0 255 0
-0.065054 -0.318837 0.452017 153 0 76
-0.631101 0.669063 0.169686 0 255 0
0.072181 0.174553 0.141076 153 76 0
-0.083686 0.043028 -0.913706 153 0 76
-0.104477 -0.255114 0.221684 153 0 76
-0.094358 -0.195594 -0.959184 153 0 76
-0.125043 0.013394 -0.109694 153 0 76
-0.084320 -0.153096 -0.452232 153 0 76
0.160826 -0.452096 0.751504 76 0 153
0.183933 -0.429271 0.631590 76 0 153
-0.023334 -0.307671 -0.742861 153 0 76
-0.115055 0.010475 -0.959184 153 0 76
-0.429212 0.609192 0.201417 0 255 0
-0.633424 0.504558 0.111024 0 255 0
-0.106858 0.101909 0.265084 76 0 153
-0.149190 -0.208564 0.103012 153 0 76
0.217603 -0.159763 -0.664211 153 0 76
-0.016068 0.062331 -0.897953 153 0 76
-0.075076 0.284247 0.115170 0 255 0
-0.168579 -0.068482 0.446485 153 0 76
-0.133999 -0.453725 0.708149 76 153 0
-0.053039 -0.167126 0.751364 153 0 76
0.046367 -0.334313 -0.685801 153 0 76
-0.143931 -0.481336 0.759272 76 0 153
-0.089043 -0.503005 0.821619 76 0 153
0.101721 -0.204540 -0.639077 153 0 76
-0.180155 0.555778 0.038585 0 255 0
0.074389 -0.059519 -0.066935 153 0 76
-0.088628 -0.142695 0.025388 153 0 76
0.078606 -0.160923 -0.527322 153 0 76
-0.012626 0.214857 0.004213 0 255 0
0.151872 -0.066400 -0.959184 153 0 76
-0.034652 -0.336590 0.044529 76 0 153
-0.326356 0.631013 0.202767 0 255 0
0.171256 0.550801 0.105813 0 255 0
0.013891 0.212029 0.002798 0 255 0
-0.055541 -0.280625 -0.530023 153 0 76
0.184237 -0.150998 -0.501036 153 0 76
-0.084639 0.158487 0.093146 153 76 0
0.244463 -0.160350 0.108108 76 0 153
0.062249 0.051087 -0.700140 153 0 76
-0.144604 -0.278452 -0.637518 153 0 76
0.166262 -0.476287 0.633420 76 0 153
-0.193948 -0.404259 0.704142 76 0 153
-0.003020 -0.460593 0.450156 76 0 153
-0.214352 0.561264 0.191307 0 255 0
-0.516647 0.529642 0.210040 0 255 0
0.046525 -0.277900 -0.159553 76 0 153
-0.036828 -0.027864 -0.484971 153 0 76
-0.519885 0.483386 0.170885 0 255 0
-0.130825 -0.232498 -0.115532 153 0 76
-0.140722 -0.006337 -0.415999 153 0 76
-0.087247 -0.146029 -0.705908 153 0 76
0.037530 -0.129831 0.613689 153 0 76
0.329824 0.630503 0.201407 0 255 0
0.171117 -0.073639 0.138297 153 0 76
-0.030689 -0.270452 -0.742861 153 0 76
-0.161193 -0.461080 0.673755 76 0 153
0.319308 0.677481 0.066005 0 255 0
-0.039485 -0.224077 0.438591 76 0 153
0.129087 0.154962 0.067828 153 76 0
0.040192 0.702587 0.043654 0 255 0
0.135983 -0.007013 0.428229 153 0 76
0.117553 -0.243559 -0.466117 153 0 76
0.018635 -0.440331 0.545144 76 153 0
-0.030022 0.232611 0.184845 153 76 0
-0.234510 -0.078002 0.285929 76 0 153
-0.137087 -0.001601 -0.050622 153 0 76
0.130901 -0.155359 -0.694731 153 0 76
0.272861 0.607633 0.081743 0 255 0
0.037010 -0.285252 0.224017 153 0 76
0.085773 0.556163 0.025165 0 255 0
-0.123098 0.014887 -0.757298 153 0 76
-0.095762 -0.487618 0.810140 76 0 153
-0.142906 -0.009184 -0.445075 153 0 76
0.028346 -0.144193 0.633015 153 0 76
-0.221563 0.018102 0.216315 76 0 153
-0.036648 -0.254015 0.498495 153 0 76
-0.087670 -0.080930 -0.257582 153 0 76
0.067437 0.126181 0.190971 76 0 153
0.406555 0.616771 0.009447 0 255 0
0.023291 0.061119 0.239620 153 0 76
0.186892 -0.255357 0.146055 76 0 153
0.046828 -0.332017 0.178852 76 0 153
0.231473 0.540764 0.178006 0 255 0
0.142217 0.594397 0.187792 0 255 0
0.078188 -0.270423 -0.181050 153 0 76
-0.024597 -0.430701 0.833396 76 0 153
-0.169742 -0.383617 0.594783 153 0 76
-0.050102 -0.439745 0.587126 76 153 0
0.182206 -0.254495 0.001124 76 0 153
-0.204014 -0.226230 -0.052917 76 0 153
-0.135991 -0.000172 -0.807982 153 0 76
-0.139298 -0.123507 -0.728020 153 0 76
0.052699 -0.188165 -0.689981 153 0 76
0.130923 0.003850 -0.275520 153 0 76
0.084496 -0.315348 0.596884 153 0 76
-0.048498 -0.033028 -0.598970 153 0 76
0.069817 -0.172378 -0.440189 153 0 76
0.168487 -0.062819 -0.004840 153 0 76
0.009790 0.669108 0.002737 0 255 0
0.127467 -0.287490 -0.715493 153 0 76
-0.005893 0.030348 -0.585586 153 0 76
-0.074078 -0.497766 0.479774 76 0 153
0.090030 -0.142948 0.447369 153 0 76
-0.100484 0.211003 0.074856 0 255 0
-0.047354 -0.453738 0.707229 76 153 0
0.049208 -0.333690 0.055191 76 0 153
0.073020 -0.272564 0.294183 153 0 76
0.604426 0.595585 -0.004364 0 255 0
0.023356 0.699571 0.056636 0 255 0
-0.371163 0.583024 0.127444 0 255 0
0.171401 -0.150141 -0.036235 153 0 76
-0.142550 -0.464054 0.537005 76 0 153
-0.470670 0.519487 0.024847 0 255 0
0.093692 0.035930 0.246382 153 0 76
-0.135136 -0.070062 -0.676195 153 0 76
-0.142080 0.106381 0.064869 76 0 153
0.058591 -0.017453 0.467275 76 0 153
0.192078 0.598370 0.070299 0 255 0
0.014992 0.743955 0.088252 0 255 0
-0.418200 0.653920 0.059009 0 255 0
-0.023858 -0.287244 -0.231363 153 0 76
0.301812 0.678895 0.150545 0 255 0
0.075197 -0.317668 -0.533412 153 0 76
0.075698 -0.012415 -0.256176 76 0 153
0.064952 0.542322 0.202281 0 255 0
-0.497227 0.481794 0.080196 0 255 0
0.349364 0.637574 0.022567 0 255 0
0.000216 -0.289291 -0.501036 153 0 76
-0.061167 -0.042750 0.219372 153 0 76
0.406134 0.617938 0.119630 0 255 0
0.015863 0.133147 -0.530766 153 0 76
0.129535 0.635477 0.134372 0 255 0
-0.117595 -0.058935 0.603110 153 0 76
-0.089924 0.254910 0.113397 0 255 0
-0.193788 0.031279 -0.649165 153 0 76
-0.129247 -0.432808 0.746463 76 0 153
0.073888 -0.167072 -0.795982 153 0 76
0.063107 -0.233626 -0.661308 153 0 76
0.068703 -0.274352 -0.886359 153 0 76
0.009713 0.000259 0.592112 153 0 76
-0.080400 -0.267432 0.784105 153 0 76
0.140056 -0.008052 -0.426216 153 0 76
0.533499 0.693650 0.037214 0 255 0
-0.026425 -0.267155 -0.186345 76 0 153
-0.093936 -0.111501 -0.429824 153 0 76
-0.613489 0.598315 0.007056 0 255 0
0.122019 0.087805 0.067726 153 76 0
-0.017645 -0.280879 0.718300 153 0 76
-0.040827 -0.470115 0.838121 76 0 153
-0.009789 0.130980 0.232115 76 0 153
-0.158131 -0.041494 0.416070 76 0 153
-0.021186 -0.319780 0.728653 153 0 76
-0.084600 0.535776 0.177831 0 255 0
-0.008678 -0.439857 0.579112 76 153 0
0.022784 -0.202978 -0.149927 153 0 76
-0.026098 -0.202519 -0.896336 153 0 76
0.118992 -0.242455 -0.423004 153 0 76
-0.165881 -0.463011 0.531447 76 0 153
0.005508 0.030203 -0.714977 153 0 76
-0.046521 0.022333 -0.533295 153 0 76
0.129087 0.092549 0.159136 153 76 0
0.079102 0.653516 0.194691 0 255 0
0.133684 -0.433210 0.799072 76 0 153
-0.177057 -0.122237 -0.358764 153 0 76
0.164679 -0.172312 0.109171 153 0 76
-0.072102 0.593629 0.057945 0 255 0
0.158632 -0.186913 -0.174387 153 0 76
-0.070420 0.154184 0.054181 153 76 0
0.127582 -0.163371 -0.575755 153 0 76
0.063345 -0.276571 -0.250617 153 0 76
0.065228 -0.323423 -0.508238 153 0 76
0.141489 -0.216018 -0.511180 153 0 76
-0.132403 0.206077 0.040965 153 76 0
-0.026812 0.060916 0.056248 153 0 76
0.062269 0.624235 0.051193 0 255 0
-0.022962 -0.348682 -0.560061 153 0 76
-0.082639 0.043462 -0.890638 153 0 76
-0.072300 0.620715 0.211499 0 255 0
0.103618 -0.254252 -0.872644 153 0 76
0.033781 -0.453350 0.734978 76 153 0
-0.037445 -0.439494 0.605091 76 153 0
0.096635 -0.116121 0.687835 153 0 76
-0.027897 -0.003991 -0.268756 76 0 153
0.531039 0.715274 0.135915 0 255 0
0.160808 -0.420307 0.746959 76 0 153
0.183257 -0.429887 0.580327 76 0 153
0.078094 -0.328995 0.102267 76 0 153
-0.553963 0.706349 0.056716 0 255 0
-0.143020 0.023472 -0.178331 76 0 153
-0.005447 0.561851 0.051638 0 255 0
-0.038633 -0.100102 0.578346 153 0 76
-0.096575 0.042946 -0.501036 153 0 76
0.095345 -0.206158 -0.221202 76 0 153
0.096013 -0.188786 0.738495 153 0 76
-0.045459 -0.494714 0.824417 76 0 153
0.052784 -0.517287 0.822420 76 0 153
0.156459 0.055369 -0.081175 76 0 153
0.638677 0.691365 0.125218 0 255 0
0.059065 -0.042658 -0.108173 153 0 76
0.037970 -0.196780 -0.245286 153 0 76
-0.142721 -0.271429 0.728767 153 0 76
-0.092804 0.038133 -0.690287 153 0 76
0.173989 0.624322 0.185362 0 255 0
-0.082496 0.631316 0.146547 0 255 0
-0.094762 -0.188629 0.448687 76 0 153
0.172833 -0.139263 -0.351375 153 0 76
0.649063 0.627170 0.197373 0 255 0
0.051001 -0.281684 -0.139928 153 0 76
0.172017 -0.145462 -0.605916 153 0 76
-0.243482 -0.031717 0.231765 76 0 153
0.515527 0.521055 0.215135 0 255 0
0.134461 -0.364587 0.757962 153 0 76
-0.022146 0.109476 0.122319 0 255 0
-0.124065 -0.439215 0.544702 76 0 153
0.139122 -0.280761 -0.601574 153 0 76
0.144644 -0.211906 0.260238 153 0 76
-0.148999 0.104544 0.103740 76 0 153
0.083869 -0.149399 -0.058247 153 0 76
-0.129053 0.557207 0.139010 0 255 0
-0.422261 0.632816 0.187567 0 255 0
-0.159817 0.552227 0.120542 0 255 0
-0.245614 -0.022790 -0.019912 76 0 153
-0.147507 -0.276776 -0.576411 153 0 76
-0.023841 -0.287247 -0.460370 153 0 76
0.032492 -0.437115 0.775440 76 153 0
0.193117 0.593328 0.193485 0 255 0
-0.076706 0.126316 0.092892 0 255 0
-0.084176 -0.220842 -0.736688 153 0 76
-0.016773 -0.237282 0.700883 153 0 76
0.006285 0.738766 0.064899 0 255 0
0.073373 -0.309203 -0.052862 76 0 153
0.222653 -0.027033 -0.047778 76 0 153
-0.045194 -0.143350 -0.289577 76 0 153
-0.119425 -0.263600 -0.140480 76 0 153
0.027839 0.617284 0.058092 0 255 0
0.048152 0.266966 0.030266 0 255 0
-0.053713 0.055443 -0.290502 153 0 76
-0.505691 0.671607 0.022688 0 255 0
0.051578 -0.207624 0.667967 153 0 76
0.160596 -0.268363 -0.592337 153 0 76
0.021552 0.137327 -0.036067 153 76 0
-0.132403 0.145278 0.080493 153 76 0
0.131882 0.002600 0.250304 153 0 76
0.068849 0.048353 -0.613407 153 0 76
0.149883 -0.444034 0.590297 76 0 153
0.091065 0.624623 0.022680 0 255 0
-0.144476 -0.214708 -0.083438 153 0 76
-0.172641 -0.155778 0.199743 153 0 76
0.074262 -0.066707 0.478969 76 0 153
0.063417 -0.276032 0.318835 153 0 76
0.140944 -0.021124 0.459320 153 0 76
0.217603 -0.160673 -0.593326 153 0 76
0.125836 -0.053704 0.580960 153 0 76
-0.054785 0.621962 0.109942 0 255 0
-0.326926 0.500090 0.138965 0 255 0
0.479744 0.480701 0.104714 0 255 0
-0.067255 0.013744 -0.709107 153 0 76
0.101100 -0.317418 0.117208 76 0 153
0.111099 0.022574 -0.838841 153 0 76
-0.018760 -0.436966 0.786125 76 153 0
-0.161955 0.094167 0.049058 76 0 153
0.198260 0.522440 0.071060 0 255 0
0.062928 -0.045140 0.312962 153 0 76
