ply
format ascii 1.0
element vertex 619
property float x
property float y
property float z
property float nx
property float ny
property float nz
property uchar red
property uchar green
property uchar blue
property float opacity
end_header
-0.235875 -0.010934 -0.028353 0.892281 -0.401700 0.206085 40 102 40 1.000000
-0.173197 -0.151551 0.280301 0.975810 0.218622 0.000000 190 170 105 1.000000
-0.219086 -0.219110 -0.604976 -1.000000 0.000000 -0.000000 204 187 145 1.000000
-0.119196 -0.243819 -0.678088 0.670341 0.742053 0.000000 204 190 133 1.000000
-0.326015 0.618237 0.108662 -0.739339 0.670172 -0.065176 40 102 40 1.000000
0.114666 -0.483825 0.812034 0.038763 -0.998460 0.039683 196 187 108 1.000000
-0.026590 0.060946 0.090210 -0.202527 0.979277 0.000000 193 185 106 1.000000
0.083265 -0.073355 0.340927 0.912332 0.409442 -0.002684 214 202 166 1.000000
-0.540872 0.721382 0.101265 0.052847 -0.994291 0.092695 40 102 40 1.000000
-0.509709 0.470128 0.118735 0.129371 -0.990599 0.044458 40 102 40 1.000000
-0.441031 0.598536 0.012940 0.563566 0.026342 -0.825651 40 102 40 1.000000
-0.217928 -0.237192 0.042413 -0.790786 -0.605703 -0.088215 40 102 40 1.000000
0.047997 0.348533 0.139426 0.833043 0.000000 0.553209 220 210 173 1.000000
-0.047713 0.619655 0.224194 0.383457 -0.158630 -0.909834 40 102 40 1.000000
-0.015609 0.461484 0.161843 -0.301031 0.000000 0.953614 222 210 174 1.000000
0.091091 -0.132476 0.485945 -0.996250 -0.077539 -0.038375 200 191 112 1.000000
-0.055400 -0.060431 0.662945 0.309337 -0.707584 -0.635323 222 210 174 1.000000
-0.194007 -0.261324 0.035686 0.698344 0.708976 0.098329 40 102 40 1.000000
-0.054785 0.364721 0.109502 0.999804 0.000000 -0.019806 222 210 174 1.000000
0.443238 0.574407 0.027922 -0.670813 -0.154411 -0.725374 40 102 40 1.000000
-0.037959 -0.452931 0.765051 -0.000000 0.999903 -0.013962 198 198 198 1.000000
-0.009046 0.513085 0.052808 -0.182384 0.000000 -0.983227 220 210 173 1.000000
0.034055 -0.285641 -0.726209 0.198907 -0.980018 -0.000000 192 183 104 1.000000
0.033955 -0.333295 0.179943 0.149394 -0.981468 0.120007 40 102 40 1.000000
0.224339 -0.076089 0.269332 -0.951163 -0.109810 -0.288496 40 102 40 1.000000
-0.252212 -0.103300 0.241622 0.972020 0.019673 -0.234072 40 102 40 1.000000
-0.013409 0.146258 0.022628 -0.525731 -0.447214 -0.723607 212 199 151 1.000000
0.122292 0.232611 0.111197 0.000000 1.000000 0.000000 203 194 139 1.000000
0.185128 -0.415221 0.582839 0.918375 -0.005525 -0.395673 204 195 116 1.000000
0.091558 -0.108492 0.028197 -0.998832 -0.048326 0.000000 189 170 100 1.000000
0.241715 -0.128856 0.187963 0.980060 -0.136591 0.144312 40 102 40 1.000000
0.168339 -0.492593 0.694743 0.040502 0.999124 0.010527 203 194 115 1.000000
-0.259623 -0.066325 0.041406 -0.984414 0.149091 -0.093276 40 102 40 1.000000
0.112492 0.661416 0.109223 -0.874836 -0.484414 -0.002356 40 102 40 1.000000
0.170772 -0.154920 -0.856221 -0.971445 0.237264 0.000000 222 209 178 1.000000
0.173201 -0.136468 0.302358 -0.991023 0.133692 0.000000 179 158 81 1.000000
-0.091643 -0.264961 -0.219306 0.512237 0.858844 0.000000 186 167 95 1.000000
-0.079539 -0.362906 0.483528 0.447315 0.276757 0.850479 222 210 174 1.000000
-0.174133 -0.081492 -0.253416 -0.983873 0.178867 0.000000 196 187 108 1.000000
0.019546 0.056339 0.440030 0.188998 0.965449 0.179410 194 185 106 1.000000
-0.065168 -0.143323 -0.310610 0.000000 0.000000 1.000000 190 171 101 1.000000
0.150785 0.660653 0.148293 -0.250164 0.845980 0.470889 40 102 40 1.000000
-0.087432 0.034076 0.446512 0.490076 -0.853065 -0.179182 155 136 66 1.000000
0.000537 0.114836 -0.501036 -0.000000 -0.000000 1.000000 189 186 121 1.000000
-0.040793 -0.029506 -0.397976 -0.382683 0.923880 0.000000 207 193 142 1.000000
0.138886 -0.006529 -0.707037 -0.795796 -0.605565 0.000000 151 130 63 1.000000
-0.108512 0.026079 0.298208 -0.611712 0.791081 0.000000 191 182 103 1.000000
0.162932 -0.049409 0.149416 0.932366 0.361517 0.000000 189 193 94 1.000000
0.068553 -0.051913 -0.513246 0.793353 0.608761 0.000000 148 127 60 1.000000
-0.439897 0.689304 0.056842 -0.136545 -0.861689 0.488720 40 102 40 1.000000
-0.030056 0.060490 -0.047755 0.212213 -0.977223 -0.000000 154 135 65 1.000000
-0.118442 -0.217305 -0.959184 0.000000 0.000000 1.000000 212 199 151 1.000000
0.436583 0.626646 0.186786 -0.719407 0.298326 0.627260 40 102 40 1.000000
0.043590 0.114788 0.031149 -0.540921 0.000000 0.841073 199 182 142 1.000000
0.057018 -0.156631 -0.279377 -0.354876 0.368595 0.859186 40 102 40 1.000000
-0.232946 -0.137280 -0.082450 0.932435 0.184456 0.310709 40 102 40 1.000000
-0.104394 -0.023100 -0.255650 0.491737 -0.450076 0.745404 40 102 40 1.000000
0.149860 -0.141889 -0.212375 0.751753 -0.238429 -0.614832 40 102 40 1.000000
0.037793 -0.285149 0.097319 0.219750 -0.975556 -0.000000 190 181 102 1.000000
-0.054785 0.609325 0.122551 0.969541 0.000000 -0.244929 222 210 174 1.000000
0.109892 0.078859 -0.634609 0.500000 0.866025 0.000000 201 194 135 1.000000
0.025123 0.092482 0.341879 -0.132548 -0.904117 -0.406206 40 102 40 1.000000
0.092446 -0.262825 -0.894692 0.529091 -0.848565 -0.000000 203 194 115 1.000000
-0.084125 -0.440000 0.568820 0.000000 -0.999903 0.013962 198 198 198 1.000000
-0.203714 -0.411848 0.653389 -0.043575 -0.998589 0.030366 204 195 116 1.000000
-0.277913 0.604840 0.139144 -0.656564 0.277212 0.701482 40 102 40 1.000000
0.172829 -0.351397 0.615970 -0.988815 0.036940 0.144497 175 155 80 1.000000
-0.076322 -0.166484 -0.951363 -0.793353 -0.608761 0.000000 168 149 71 1.000000
-0.127628 -0.051937 -0.525063 0.910973 -0.412466 -0.000000 199 182 142 1.000000
0.215605 0.582619 0.147894 -0.546249 0.241921 -0.801927 40 102 40 1.000000
-0.043893 0.663541 0.209787 -0.350897 0.501605 0.790736 40 102 40 1.000000
0.170749 0.550521 0.106936 -0.490276 0.867653 0.082510 40 102 40 1.000000
0.197099 -0.225404 -0.029026 0.794311 -0.571653 -0.205627 40 102 40 1.000000
-0.058644 -0.040814 -0.109949 0.624223 -0.781246 -0.000000 219 207 171 1.000000
-0.511549 0.706987 0.169065 -0.119050 -0.889105 -0.441950 40 102 40 1.000000
0.158305 -0.039239 0.403337 -0.905925 -0.419054 -0.060767 202 184 126 1.000000
0.082557 -0.073371 0.004405 -0.903643 -0.428286 0.000000 174 153 76 1.000000
-0.091957 -0.129469 0.301749 0.983944 0.178476 0.000000 178 159 81 1.000000
0.175645 -0.117901 -0.397419 0.999610 -0.027912 -0.000000 198 189 110 1.000000
0.087353 -0.084444 0.385301 0.953628 0.299321 0.031630 187 167 94 1.000000
0.071799 -0.328005 0.043391 0.284160 -0.955221 -0.082492 40 102 40 1.000000
-0.034306 0.737501 0.134247 0.500000 0.000000 -0.866025 201 192 113 1.000000
-0.185578 -0.453761 0.619989 -0.042527 0.998475 -0.035201 201 192 113 1.000000
-0.018087 0.696710 0.029826 -0.149475 0.766780 -0.624264 40 102 40 1.000000
0.217603 -0.105698 -0.539519 -1.000000 0.000000 -0.000000 222 210 174 1.000000
0.064010 -0.276296 0.088979 0.369774 -0.929122 -0.000000 202 193 114 1.000000
0.380606 0.494297 0.091612 -0.158809 -0.968979 -0.189367 40 102 40 1.000000
-0.170716 -0.063415 -0.518681 -0.959921 0.280269 0.000000 200 191 112 1.000000
0.012363 -0.336884 -0.742861 -0.000000 -0.000000 1.000000 198 189 110 1.000000
0.008037 -0.530559 0.453208 -0.013048 -0.999438 -0.030868 192 183 104 1.000000
-0.341205 0.497723 0.087068 -0.165847 0.956768 0.238935 40 102 40 1.000000
-0.153852 -0.193557 -0.959184 0.000000 0.000000 1.000000 217 207 168 1.000000
0.146462 -0.427713 0.607057 0.046604 0.998806 -0.014685 197 188 109 1.000000
0.166293 0.030844 0.307933 -0.706240 -0.615117 -0.350509 40 102 40 1.000000
-0.130351 0.005106 0.416750 0.733787 -0.671335 -0.104240 218 208 171 1.000000
-0.037007 0.619659 0.151073 -0.667598 0.000000 0.744522 222 210 174 1.000000
-0.172755 -0.154913 0.209981 -0.971456 -0.237222 0.000000 199 190 111 1.000000
-0.257940 -0.090360 -0.015466 -0.981769 0.039766 -0.185869 40 102 40 1.000000
0.217603 -0.173425 -0.711437 -1.000000 0.000000 -0.000000 220 210 173 1.000000
-0.164923 -0.293529 0.555627 0.932947 0.179568 0.312033 201 187 130 1.000000
-0.447623 0.701518 0.135159 -0.134811 -0.966967 -0.216334 40 102 40 1.000000
-0.070340 -0.146138 -0.282641 0.351339 0.307574 0.884284 40 102 40 1.000000
-0.103366 -0.255966 0.138785 -0.582118 -0.813104 0.000000 200 192 113 1.000000
0.346014 0.527159 0.038197 -0.168041 -0.665026 -0.727669 40 102 40 1.000000
0.217603 -0.005068 -0.610292 1.000000 0.000000 0.000000 204 187 145 1.000000
0.091857 -0.171773 0.529534 -0.999720 0.019717 0.013114 194 185 106 1.000000
-0.066319 0.050222 -0.391838 -0.371645 0.928375 0.000000 193 184 105 1.000000
-0.264160 -0.073375 0.074120 0.992459 -0.115846 0.040049 40 102 40 1.000000
-0.048518 -0.192894 -0.244870 -0.511107 -0.859517 0.000000 159 143 70 1.000000
0.083061 0.094351 -0.531052 0.500000 0.866025 0.000000 199 182 142 1.000000
0.088014 0.040286 -0.365878 -0.502213 -0.864744 0.000000 222 210 174 1.000000
0.007630 -0.456115 0.537028 -0.000000 0.999903 -0.013962 198 198 198 1.000000
0.202906 -0.176433 -0.102443 -0.863729 0.370189 0.341954 40 102 40 1.000000
0.125210 0.011294 -0.372402 -0.712555 -0.701616 0.000000 221 208 177 1.000000
-0.040714 0.059087 -0.530516 -0.241832 0.970318 0.000000 190 181 102 1.000000
-0.164889 -0.049348 -0.691749 -0.932230 0.361867 0.000000 192 183 104 1.000000
0.102639 -0.255003 -0.784955 -0.589412 0.807833 0.000000 193 173 108 1.000000
-0.122776 -0.059885 0.597834 -0.690465 0.590779 0.417418 197 189 110 1.000000
-0.154475 -0.201678 -0.401689 -0.865794 -0.500400 0.000000 199 190 111 1.000000
-0.148094 -0.415926 0.539812 -0.044967 -0.998987 -0.001400 192 183 104 1.000000
0.219094 0.632059 0.112803 -0.548306 -0.835399 -0.038320 40 102 40 1.000000
0.080804 -0.156799 0.145269 -0.881431 0.472314 0.000000 205 191 140 1.000000
-0.626063 0.654828 0.190100 0.589284 -0.494583 -0.638852 40 102 40 1.000000
-0.233523 0.555406 0.190235 -0.203418 0.426563 -0.881286 40 102 40 1.000000
0.133409 0.000609 0.037160 0.763792 0.645463 0.000000 193 185 106 1.000000
-0.002318 0.064142 0.005584 -0.134268 0.990945 0.000000 192 183 104 1.000000
0.654048 0.667306 0.156342 -0.674525 -0.642263 -0.364025 40 102 40 1.000000
-0.244155 -0.008048 0.152926 -0.909043 0.407850 0.085435 40 102 40 1.000000
-0.068379 0.103683 -0.579907 -0.500000 0.866025 0.000000 199 192 133 1.000000
-0.081563 -0.066286 -0.331098 -0.793353 0.608761 0.000000 208 194 145 1.000000
0.009507 -0.332719 -0.006859 -0.061952 0.985411 0.158515 40 102 40 1.000000
0.059925 -0.256032 0.387951 -0.295297 0.800226 -0.521956 40 102 40 1.000000
-0.044773 -0.288213 0.711263 0.473390 -0.273080 -0.837454 190 181 102 1.000000
0.059110 0.140742 0.057814 -0.525731 0.447214 0.723607 221 209 171 1.000000
-0.175852 -0.094554 -0.214396 -0.994500 0.104737 0.000000 202 193 114 1.000000
-0.126931 -0.237573 0.070951 0.710869 0.703325 0.000000 206 192 143 1.000000
-0.162758 -0.044202 -0.859711 -0.920298 0.391219 0.000000 203 194 115 1.000000
0.059970 -0.070533 0.669009 0.347766 0.682923 0.642398 203 194 115 1.000000
-0.057110 -0.279975 -0.151643 -0.318528 -0.947914 0.000000 203 194 115 1.000000
-0.090955 -0.088861 -0.590604 -0.923880 0.382683 0.000000 223 208 175 1.000000
0.039681 -0.029866 -0.409412 -0.382683 -0.923880 0.000000 195 186 107 1.000000
0.138845 -0.262536 0.287460 -0.579626 0.754403 -0.308076 40 102 40 1.000000
-0.124576 -0.439940 0.573179 -0.000000 0.999903 -0.013962 222 210 174 1.000000
0.129087 0.106980 0.070810 -1.000000 0.000000 0.000000 220 210 173 1.000000
0.160787 -0.062882 -0.742861 0.000000 0.000000 -1.000000 204 195 140 1.000000
-0.016531 0.101092 0.243889 -0.500000 0.000000 0.866025 195 188 129 1.000000
0.180899 0.058830 0.188115 -0.708561 -0.691978 -0.138231 40 102 40 1.000000
-0.070820 -0.321051 -0.521801 -0.500000 -0.866025 -0.000000 199 182 142 1.000000
0.259561 0.672457 0.151913 -0.200325 0.869534 0.451421 40 102 40 1.000000
0.163950 -0.263759 -0.020759 -0.654203 0.732314 0.189035 40 102 40 1.000000
-0.137064 -0.224220 0.309696 -0.773872 -0.632818 0.025737 199 190 111 1.000000
-0.029306 0.232611 0.186774 0.000000 1.000000 0.000000 202 185 143 1.000000
0.168145 -0.061994 0.265941 -0.957461 -0.288563 0.000000 149 128 59 1.000000
0.140772 -0.219908 0.397412 0.807653 -0.575982 -0.126263 202 193 114 1.000000
-0.110885 0.121800 0.079331 0.371996 -0.927765 0.029529 40 102 40 1.000000
0.026004 -0.024202 -0.488031 0.382683 0.923880 0.000000 172 151 74 1.000000
0.089647 -0.131963 0.161984 0.978742 -0.205098 -0.000000 197 181 118 1.000000
-0.183348 -0.029409 0.372362 -0.784040 0.362360 0.503961 40 102 40 1.000000
0.170553 -0.069357 -0.643670 -0.969169 -0.246398 0.000000 198 182 119 1.000000
0.168367 -0.476509 0.615105 0.047157 0.998785 -0.014277 197 188 109 1.000000
0.131365 -0.229212 0.122889 0.751364 -0.659888 -0.000000 198 189 110 1.000000
-0.400704 0.645066 0.018682 -0.147325 -0.480472 0.864547 40 102 40 1.000000
0.052016 0.548036 0.005345 -0.404755 0.407247 0.818733 40 102 40 1.000000
-0.416193 0.498123 0.160543 0.142532 -0.878986 0.455048 40 102 40 1.000000
0.088024 -0.144524 0.541041 -0.959081 -0.228490 -0.167202 191 183 104 1.000000
0.144458 -0.104991 -0.959184 0.000000 0.000000 1.000000 210 195 144 1.000000
-0.062864 0.232611 0.043584 0.000000 -1.000000 0.000000 198 189 110 1.000000
-0.007918 0.116246 0.281124 -0.001126 0.957918 0.287041 40 102 40 1.000000
-0.082496 0.043521 -0.520319 0.461934 -0.886914 -0.000000 147 128 60 1.000000
-0.117049 0.574490 0.038939 0.259427 -0.249046 -0.933099 40 102 40 1.000000
0.151111 -0.236467 0.699821 0.860282 0.222376 0.458763 179 170 91 1.000000
-0.067623 -0.048119 0.001880 0.716623 -0.697461 -0.000000 161 140 69 1.000000
0.497658 0.582945 0.225178 0.125647 0.093381 -0.987670 40 102 40 1.000000
-0.058751 -0.421956 0.841794 -0.003153 0.998166 -0.060456 199 190 111 1.000000
-0.085525 -0.075753 -0.763421 -0.923880 0.382683 0.000000 185 165 92 1.000000
0.118481 -0.043772 0.437167 0.633801 0.324005 0.702366 40 102 40 1.000000
-0.141818 0.095780 -0.024790 0.499235 -0.845234 0.190641 40 102 40 1.000000
-0.127439 -0.458345 0.754853 -0.027211 -0.998181 0.053808 201 192 113 1.000000
-0.166446 -0.053106 0.101147 -0.940344 0.340224 0.000000 191 182 103 1.000000
-0.051011 -0.282501 -0.596129 0.282985 0.959124 0.000000 198 182 119 1.000000
-0.089680 -0.454633 0.643160 -0.000000 0.999903 -0.013962 198 198 198 1.000000
0.007477 -0.288217 -0.151896 -0.061818 0.903102 0.424953 40 102 40 1.000000
0.081353 -0.409232 0.781488 -0.552945 -0.011634 -0.833137 196 187 108 1.000000
-0.071839 -0.172326 -0.585645 -0.793353 -0.608761 0.000000 219 204 169 1.000000
-0.234651 -0.111601 0.290421 -0.942613 -0.060741 0.328316 40 102 40 1.000000
0.166813 -0.167160 0.195471 -0.951609 0.307310 0.000000 192 175 110 1.000000
-0.220041 -0.060272 -0.121519 0.901740 -0.191982 0.387309 40 102 40 1.000000
0.044728 -0.476865 0.802901 -0.002256 0.999465 0.032628 202 193 114 1.000000
-0.123671 0.577313 0.127824 -0.973633 -0.173836 0.147716 40 102 40 1.000000
-0.105820 -0.437396 0.755357 -0.000000 0.999903 -0.013962 222 210 174 1.000000
0.105121 -0.064398 -0.959184 0.000000 0.000000 1.000000 213 202 160 1.000000
-0.074179 0.047756 0.317601 0.416532 -0.908774 0.025106 187 167 94 1.000000
-0.126058 -0.238554 -0.096716 0.705643 0.708568 0.000000 194 177 111 1.000000
0.129087 0.212381 0.098190 -1.000000 0.000000 0.000000 220 210 173 1.000000
-0.020447 -0.506657 0.476338 0.010163 0.998138 -0.060144 198 189 110 1.000000
0.083514 -0.000649 -0.238824 -0.450091 -0.566716 0.690109 40 102 40 1.000000
0.013000 -0.021673 0.258136 -0.151477 -0.988461 0.000000 176 155 78 1.000000
-0.009955 -0.310008 -0.096634 0.009005 0.949853 0.312566 40 102 40 1.000000
-0.079608 -0.437687 0.734510 0.000000 -0.999903 0.013962 198 198 198 1.000000
-0.134270 -0.496038 0.500429 -0.040611 -0.999133 -0.009175 202 193 114 1.000000
0.107193 -0.492792 0.500113 0.037219 0.998364 -0.043400 199 190 111 1.000000
0.091628 -0.109025 -0.404903 0.991445 0.130526 0.000000 213 200 156 1.000000
0.135898 -0.173703 0.417657 0.672726 -0.408022 0.617218 40 102 40 1.000000
-0.234505 0.015360 0.077063 0.861485 -0.506597 0.034690 40 102 40 1.000000
0.233502 0.646661 0.043788 -0.211627 0.604394 -0.768064 40 102 40 1.000000
-0.177357 -0.106885 0.399088 0.999220 -0.038950 -0.006496 196 180 117 1.000000
-0.020214 -0.155042 0.647524 0.208043 -0.633368 -0.745361 195 187 108 1.000000
-0.020196 0.544139 0.081335 -0.361068 -0.799984 -0.479224 40 102 40 1.000000
-0.060739 0.091796 0.336344 -0.213378 0.894032 0.393925 40 102 40 1.000000
0.081548 -0.447321 0.467285 0.424190 -0.012644 -0.905485 201 192 113 1.000000
0.081961 0.231900 0.105015 0.999120 0.000000 0.041941 222 210 174 1.000000
-0.219086 -0.090701 -0.730695 1.000000 0.000000 0.000000 220 210 173 1.000000
-0.026936 0.435941 0.158162 -0.492970 0.000000 0.870046 222 210 174 1.000000
-0.035254 -0.211114 0.779568 0.227285 -0.402501 -0.886755 220 208 172 1.000000
-0.008878 -0.355817 0.821543 0.153119 -0.119990 -0.980896 211 196 153 1.000000
0.034490 -0.284488 0.369581 -0.202190 0.971460 0.124033 200 186 129 1.000000
0.108498 -0.312367 0.048660 0.421790 -0.903517 -0.075835 40 102 40 1.000000
-0.000723 -0.206072 -0.007899 0.002876 -0.999996 -0.000000 163 138 68 1.000000
0.025488 -0.286769 0.056152 0.150619 -0.988592 -0.000000 193 185 108 1.000000
0.683181 0.598493 0.160952 -0.903594 -0.058720 -0.424346 40 102 40 1.000000
0.053376 -0.038293 0.008845 0.588579 0.808440 0.000000 177 156 77 1.000000
-0.047945 -0.334258 -0.559352 -0.500000 -0.866025 -0.000000 206 189 149 1.000000
0.033136 -0.238681 0.695681 0.370803 0.403909 0.836279 221 209 171 1.000000
-0.049338 0.108827 0.224948 0.500000 0.000000 -0.866025 220 210 173 1.000000
0.146237 -0.209830 0.303879 0.835417 -0.549617 -0.000000 201 192 113 1.000000
-0.123318 -0.384469 0.774880 0.692303 -0.068161 -0.718381 172 150 76 1.000000
0.427722 0.500082 0.162473 0.144309 0.867362 -0.476297 40 102 40 1.000000
-0.151907 -0.020915 -0.007553 0.853716 -0.520738 -0.000000 162 142 69 1.000000
0.226705 -0.202456 0.090694 0.889112 -0.457496 -0.013279 40 102 40 1.000000
0.063631 -0.046162 -0.793280 0.608761 0.793353 0.000000 181 160 83 1.000000
0.173705 -0.132638 -0.521995 0.993722 -0.111880 -0.000000 193 184 105 1.000000
-0.041279 -0.455864 0.554945 0.000000 -0.999903 0.013962 220 210 173 1.000000
0.253990 0.588152 0.022887 -0.202014 -0.061907 -0.977424 40 102 40 1.000000
-0.137327 -0.001864 0.302473 0.775346 -0.630908 0.028157 220 209 175 1.000000
0.460796 0.637534 0.214122 0.133439 -0.387570 -0.912131 40 102 40 1.000000
-0.626384 0.518699 0.172503 0.591471 0.638899 -0.491904 40 102 40 1.000000
-0.045021 0.099179 -0.501036 0.000000 0.000000 -1.000000 220 210 173 1.000000
-0.022183 0.141377 0.068037 -0.051808 0.997607 -0.045784 40 102 40 1.000000
0.115434 0.019247 -0.299697 0.660869 0.750502 0.000000 192 183 104 1.000000
-0.170471 -0.391294 0.597089 0.959056 0.030619 0.281558 151 130 63 1.000000
-0.477076 0.643745 0.007814 -0.126086 -0.432498 0.892776 40 102 40 1.000000
-0.131298 -0.231882 -0.940002 0.738664 0.674074 0.000000 193 175 113 1.000000
0.092681 0.036706 -0.606792 0.530508 0.847680 0.000000 199 190 111 1.000000
0.033635 -0.295731 0.531770 -0.375995 0.484001 0.790171 190 182 105 1.000000
-0.177066 -0.103773 -0.010149 -0.998639 0.052160 0.000000 204 195 116 1.000000
0.217603 -0.205437 -0.578941 -1.000000 0.000000 -0.000000 220 210 173 1.000000
0.066630 0.013389 -0.719666 -0.481062 -0.876687 -0.000000 198 181 141 1.000000
-0.053185 -0.489363 0.800235 0.311349 -0.013268 -0.950203 198 189 110 1.000000
-0.046734 0.180620 0.226451 -0.500000 0.000000 0.866025 199 192 133 1.000000
-0.525561 0.719918 0.136976 -0.035738 -0.981482 -0.188190 40 102 40 1.000000
-0.184261 0.569359 0.142752 0.528167 0.517552 -0.673186 40 102 40 1.000000
-0.086547 -0.169085 0.583186 -0.927124 0.265084 0.264898 179 158 81 1.000000
-0.155751 -0.002986 -0.501036 -0.000000 -0.000000 1.000000 196 189 130 1.000000
0.072156 -0.228927 -0.640747 0.520652 -0.853769 -0.000000 222 210 174 1.000000
0.058782 -0.235417 -0.502059 -0.427069 0.904219 0.000000 200 193 134 1.000000
0.019002 -0.064554 0.676662 0.187572 0.712621 0.676009 200 191 112 1.000000
-0.174789 -0.139462 -0.191599 -0.988581 -0.150692 0.000000 193 184 105 1.000000
-0.196371 0.514907 0.081392 -0.218330 0.913388 0.343590 40 102 40 1.000000
-0.048322 -0.370783 0.565151 0.510118 0.133269 0.849717 199 190 111 1.000000
0.038276 -0.311214 0.719871 0.426261 0.221207 0.877136 219 208 168 1.000000
0.005957 -0.258896 0.493418 -0.075445 0.721166 0.688642 208 199 120 1.000000
0.079836 0.152127 0.131065 -0.850651 0.447214 -0.276393 221 208 177 1.000000
0.009355 0.559830 -0.012536 0.066518 -0.310191 -0.948344 40 102 40 1.000000
-0.213455 -0.018384 -0.110653 0.849264 -0.388139 0.357908 40 102 40 1.000000
-0.093356 0.160914 0.199534 -0.500000 0.000000 0.866025 200 183 143 1.000000
-0.107187 0.524252 0.084113 -0.261591 0.899941 0.348821 40 102 40 1.000000
0.056235 -0.090434 0.690586 -0.326306 -0.645456 -0.690588 205 191 142 1.000000
-0.001136 0.103622 0.321199 0.025577 0.931849 0.361943 40 102 40 1.000000
-0.035951 0.538650 0.121315 -0.374388 -0.911566 0.169946 40 102 40 1.000000
0.235016 -0.168596 0.187024 -0.939014 0.313828 -0.140583 40 102 40 1.000000
-0.188319 0.053682 -0.036623 -0.695373 0.685410 -0.216030 40 102 40 1.000000
0.060701 -0.287228 0.408110 -0.351772 0.849698 0.392771 187 167 94 1.000000
0.040249 -0.284826 -0.779694 -0.233345 0.972394 0.000000 188 169 99 1.000000
-0.613981 0.629764 0.012791 -0.504666 0.279627 -0.816775 40 102 40 1.000000
0.530116 0.716074 0.130049 -0.107479 0.984897 0.135744 40 102 40 1.000000
-0.041385 0.656743 0.071737 -0.758393 0.000000 -0.651797 222 210 174 1.000000
-0.176937 -0.102793 0.169329 -0.998331 0.057743 0.000000 203 194 115 1.000000
-0.141003 -0.150648 -0.959184 0.000000 0.000000 1.000000 221 209 171 1.000000
-0.146959 -0.231239 0.444135 -0.829945 -0.496306 -0.254700 196 187 108 1.000000
0.421522 0.612092 0.215234 0.146575 -0.171632 -0.974196 40 102 40 1.000000
-0.006477 0.694374 0.192921 -0.057705 0.747267 0.662014 40 102 40 1.000000
0.040888 -0.195572 0.200842 0.452192 -0.891921 -0.000000 174 152 78 1.000000
0.129087 0.170744 0.035216 1.000000 0.000000 0.000000 194 187 128 1.000000
0.005433 -0.020677 -0.774275 -0.130526 -0.991445 0.000000 198 189 110 1.000000
0.025543 -0.201928 -0.320160 0.382683 -0.923880 -0.000000 190 173 105 1.000000
-0.016980 -0.204003 -0.749163 -0.130526 -0.991445 0.000000 175 154 77 1.000000
-0.041266 -0.519866 0.807798 -0.001742 0.998060 -0.062231 205 196 117 1.000000
0.082438 0.041365 0.398154 0.401944 0.730802 0.551697 40 102 40 1.000000
-0.018028 -0.203865 -0.098149 -0.184232 -0.982883 0.000000 218 207 173 1.000000
-0.165542 -0.431115 0.531720 0.044584 0.999005 -0.000683 192 183 104 1.000000
0.167508 -0.341109 0.694393 0.955076 0.052634 0.291651 198 189 110 1.000000
0.039758 -0.334825 0.145793 -0.169428 0.983128 -0.068943 40 102 40 1.000000
-0.441530 0.591416 0.222487 0.134409 -0.020627 0.990711 40 102 40 1.000000
-0.131055 -0.232199 -0.176471 -0.737141 -0.675739 0.000000 199 190 111 1.000000
0.087999 -0.516440 0.819145 0.035152 -0.998340 0.045621 202 193 114 1.000000
-0.151233 -0.417832 0.748907 -0.045268 0.998975 -0.000251 201 192 113 1.000000
-0.040225 -0.285090 -0.105021 -0.222242 -0.974992 0.000000 195 187 108 1.000000
-0.042282 -0.333169 0.009713 -0.124821 -0.983200 -0.133180 40 102 40 1.000000
0.129087 0.150446 0.055534 -1.000000 0.000000 0.000000 220 210 173 1.000000
-0.069373 -0.099280 0.537942 -0.739254 0.575484 0.349745 195 177 117 1.000000
0.137011 -0.004085 -0.869684 0.785063 0.619416 0.000000 201 192 113 1.000000
0.151816 -0.023379 -0.506455 -0.862663 -0.505780 0.000000 174 152 78 1.000000
-0.310607 0.657881 0.039026 0.174658 0.654883 -0.735270 40 102 40 1.000000
-0.491545 0.704795 0.059109 -0.240814 -0.869710 0.430829 40 102 40 1.000000
-0.116671 0.521477 0.129315 -0.259815 0.936197 -0.236708 40 102 40 1.000000
-0.641553 0.653265 0.053759 -0.705043 0.497630 -0.505252 40 102 40 1.000000
0.416140 0.586438 0.165414 0.884409 0.051938 -0.463814 40 102 40 1.000000
-0.048456 -0.283560 -0.276783 -0.268056 -0.963403 0.000000 202 193 114 1.000000
-0.092547 -0.100952 -0.761438 -0.991445 0.130526 0.000000 182 161 84 1.000000
0.050111 -0.012345 -0.959184 0.000000 0.000000 -1.000000 186 178 99 1.000000
-0.044151 -0.028551 0.353495 0.466366 -0.884527 -0.010732 207 198 119 1.000000
0.088713 0.593351 0.017341 0.691724 -0.048819 -0.720510 40 102 40 1.000000
0.013311 0.039623 -0.959184 0.000000 0.000000 -1.000000 197 188 109 1.000000
0.007532 0.492568 0.177674 -0.052572 0.840109 -0.539863 40 102 40 1.000000
0.139453 -0.014600 0.440463 0.800374 0.584485 0.133339 197 189 112 1.000000
0.171625 -0.146466 0.347954 -0.979634 0.200732 0.004960 201 188 132 1.000000
0.109939 -0.469273 0.540063 0.024934 -0.999300 -0.027873 205 196 117 1.000000
0.160360 -0.101758 0.409269 0.794832 -0.014912 0.606646 40 102 40 1.000000
0.124579 -0.238055 -0.812824 0.708473 -0.705738 -0.000000 190 181 102 1.000000
0.557437 0.608003 -0.012192 -0.052429 -0.124271 0.990862 40 102 40 1.000000
0.164540 -0.172649 -0.012300 -0.940727 0.339164 0.000000 171 149 75 1.000000
0.041767 0.118192 -0.679792 0.500000 0.866025 0.000000 208 191 151 1.000000
-0.135882 -0.000031 -0.352978 0.766741 -0.641957 -0.000000 210 197 153 1.000000
0.085665 0.654861 0.144218 -0.286251 0.842129 0.457032 40 102 40 1.000000
0.094578 -0.455043 0.613780 -0.000000 0.999903 -0.013962 198 198 198 1.000000
-0.059021 -0.439990 0.569535 -0.000000 0.999903 -0.013962 222 210 174 1.000000
-0.041101 0.569348 0.145437 0.752787 0.000000 -0.658264 222 210 174 1.000000
0.086958 -0.141019 0.324847 -0.949946 0.312390 -0.003945 195 187 108 1.000000
-0.016836 -0.021917 -0.803794 -0.130526 0.991445 0.000000 197 183 126 1.000000
-0.066290 -0.522122 0.481935 -0.002925 0.998120 -0.061213 201 192 113 1.000000
-0.132403 0.202674 0.148814 1.000000 0.000000 0.000000 220 210 173 1.000000
-0.127349 0.069637 -0.568438 0.500000 -0.866025 -0.000000 222 210 174 1.000000
-0.227993 0.657789 0.051144 -0.204939 -0.714882 0.668538 40 102 40 1.000000
-0.164701 -0.048893 -0.609377 -0.931211 0.364479 0.000000 195 187 108 1.000000
-0.092638 -0.101638 -0.643170 0.991445 -0.130526 -0.000000 186 177 98 1.000000
0.034118 -0.198376 -0.603731 -0.382683 0.923880 0.000000 202 193 114 1.000000
-0.044945 0.116406 -0.742861 0.000000 0.000000 -1.000000 195 181 133 1.000000
0.430127 0.518377 0.131206 -0.764040 -0.626880 0.152527 40 102 40 1.000000
0.176907 0.040168 -0.590327 -0.500000 -0.866025 -0.000000 220 210 173 1.000000
0.048602 0.594725 0.138594 0.843032 0.000000 0.537864 220 210 173 1.000000
0.141444 0.527447 0.074685 -0.254896 -0.847805 -0.465033 40 102 40 1.000000
-0.138285 -0.314434 0.514336 0.782255 0.312337 0.539001 177 156 77 1.000000
0.004857 -0.303067 0.412635 0.033269 -0.865492 -0.499817 192 183 104 1.000000
-0.078478 0.541141 0.158835 -0.278833 0.710754 -0.645818 40 102 40 1.000000
-0.093063 -0.109630 0.418198 0.996173 -0.083470 -0.025937 191 182 103 1.000000
0.116179 -0.148872 -0.959184 0.000000 0.000000 -1.000000 203 194 115 1.000000
0.103789 0.028182 -0.158661 -0.596048 -0.802949 0.000000 193 176 110 1.000000
-0.195031 -0.521993 0.711720 0.037048 0.998426 -0.042117 198 189 110 1.000000
-0.014509 -0.204328 -0.055668 0.146371 0.989230 0.000000 196 178 118 1.000000
-0.069515 0.613525 0.160517 -0.398256 0.340670 0.851667 40 102 40 1.000000
0.217603 -0.110319 -0.713998 -1.000000 0.000000 -0.000000 220 210 173 1.000000
0.520429 0.497698 0.193805 0.165703 0.748906 -0.641624 40 102 40 1.000000
-0.148984 -0.487846 0.543339 0.028541 -0.998248 0.051837 201 192 113 1.000000
-0.094717 -0.440351 0.543733 0.000000 -0.999903 0.013962 198 198 198 1.000000
-0.072010 -0.230178 -0.522767 0.508161 0.861262 0.000000 200 193 134 1.000000
0.092851 -0.262513 -0.580552 -0.531535 0.847036 0.000000 216 201 166 1.000000
-0.158871 -0.517588 0.595190 0.035948 -0.998387 0.043934 201 192 113 1.000000
-0.020749 0.593914 0.176269 -0.313195 -0.002591 -0.949685 40 102 40 1.000000
0.146954 -0.248364 0.308086 -0.622458 0.701114 -0.347829 40 102 40 1.000000
0.146875 -0.293097 0.059386 -0.562867 0.824374 0.059908 40 102 40 1.000000
0.057313 0.676310 0.101037 0.991500 0.000000 -0.130106 220 210 173 1.000000
0.612913 0.669130 0.195883 0.391528 0.630295 0.670399 40 102 40 1.000000
-0.260512 -0.048846 0.079490 0.973753 -0.225442 0.031313 40 102 40 1.000000
0.217603 -0.194295 -0.737604 -1.000000 0.000000 -0.000000 220 210 173 1.000000
0.128257 -0.243072 0.417192 -0.733662 0.634436 0.243374 186 165 94 1.000000
0.048177 0.397900 0.139179 0.836038 0.000000 0.548671 220 210 173 1.000000
0.009757 0.353615 0.164566 0.149493 0.000000 0.988763 222 210 174 1.000000
0.055052 -0.278701 -0.151305 -0.259059 0.865855 0.428000 40 102 40 1.000000
-0.570823 0.584013 -0.008734 -0.233468 -0.089627 -0.968225 40 102 40 1.000000
0.013796 -0.321346 -0.501036 0.000000 0.000000 -1.000000 222 210 174 1.000000
-0.226569 0.627139 0.124094 0.579796 -0.758913 -0.296459 40 102 40 1.000000
-0.054227 -0.187123 0.336152 0.576758 0.816911 -0.002541 191 182 103 1.000000
0.126911 -0.277184 -0.742861 -0.000000 -0.000000 1.000000 198 189 110 1.000000
0.217603 -0.091417 -0.595135 -1.000000 0.000000 -0.000000 222 210 174 1.000000
0.574223 0.554648 -0.006442 -0.151534 0.295101 0.943373 40 102 40 1.000000
0.231593 -0.127476 0.244034 0.961411 -0.133194 0.240724 40 102 40 1.000000
-0.034064 0.152871 0.178311 -0.388736 0.000000 0.921349 220 210 173 1.000000
-0.050578 -0.191313 -0.121032 -0.534817 -0.844968 0.000000 212 201 157 1.000000
0.098944 -0.010619 -0.572460 -0.710363 -0.703836 -0.000000 201 194 135 1.000000
-0.664324 0.555073 0.146329 -0.886120 -0.358611 0.293581 40 102 40 1.000000
-0.556998 0.476570 0.072964 -0.148109 -0.936594 -0.317578 40 102 40 1.000000
-0.078996 0.097554 -0.626033 -0.500000 0.866025 0.000000 199 192 133 1.000000
0.237519 -0.180627 0.119343 0.931806 -0.361567 0.031717 40 102 40 1.000000
0.089063 -0.205346 0.537288 0.967988 -0.185365 -0.169228 147 128 60 1.000000
-0.489317 0.502528 0.033856 0.253661 -0.735412 -0.628351 40 102 40 1.000000
-0.084775 -0.192028 0.610785 0.907011 -0.267775 -0.325005 195 187 110 1.000000
0.121512 -0.203313 -0.203164 -0.595153 0.560312 0.576059 40 102 40 1.000000
0.094968 0.088578 -0.100742 0.401691 0.856698 -0.323594 40 102 40 1.000000
-0.087919 0.066783 -0.163040 0.340553 -0.820157 0.459745 40 102 40 1.000000
-0.132403 0.153109 0.122055 -1.000000 0.000000 0.000000 199 192 133 1.000000
-0.160893 -0.237430 0.498296 -0.909673 -0.315622 -0.269957 199 190 111 1.000000
0.622895 0.593602 0.222838 -0.453364 -0.011808 -0.891247 40 102 40 1.000000
-0.517917 0.601550 0.229862 -0.116433 -0.065175 -0.991058 40 102 40 1.000000
-0.013996 0.133324 -0.023129 -0.023112 0.982774 -0.183359 40 102 40 1.000000
0.156694 -0.270616 -0.516183 -0.500000 0.866025 0.000000 222 210 174 1.000000
-0.013907 -0.298277 0.526519 -0.140293 -0.518344 -0.843586 169 147 73 1.000000
0.152033 -0.440012 0.648723 -0.996374 0.001188 0.085072 197 188 109 1.000000
0.096077 0.617283 0.043965 0.278549 -0.318101 0.906213 40 102 40 1.000000
-0.155486 -0.026648 -0.144698 0.872978 -0.487760 -0.000000 219 207 171 1.000000
0.194317 -0.126576 -0.501036 -0.000000 -0.000000 1.000000 203 194 139 1.000000
-0.030593 -0.200658 -0.513556 -0.382683 -0.923880 0.000000 178 157 80 1.000000
0.155177 -0.264663 0.512932 0.885417 -0.307699 -0.348365 205 196 117 1.000000
-0.157702 -0.014186 -0.200495 0.687407 -0.453293 0.567448 40 102 40 1.000000
-0.136376 0.645197 0.053332 -0.247521 -0.644814 0.723152 40 102 40 1.000000
-0.121431 0.016166 -0.310145 -0.682056 0.731300 0.000000 198 189 110 1.000000
0.034423 -0.027688 -0.708099 0.382683 0.923880 0.000000 187 168 96 1.000000
0.135007 0.596681 0.158453 0.449110 0.055399 0.891757 40 102 40 1.000000
0.091775 0.516294 0.140226 -0.715050 0.654356 -0.246013 40 102 40 1.000000
-0.254955 -0.134465 0.198247 -0.973444 -0.162512 0.161237 40 102 40 1.000000
0.028036 0.126119 -0.547159 0.500000 0.866025 0.000000 206 189 149 1.000000
0.171656 -0.077736 0.214588 0.979805 0.199954 0.000000 202 193 114 1.000000
0.029012 0.060366 -0.612999 -0.214830 -0.976651 0.000000 214 199 156 1.000000
-0.127179 -0.012898 0.500193 0.714138 -0.655859 -0.244655 158 138 65 1.000000
-0.118536 -0.109159 -0.959184 0.000000 0.000000 -1.000000 196 187 108 1.000000
-0.173873 -0.284115 0.658248 0.981963 -0.066859 -0.176856 195 175 110 1.000000
0.089511 -0.273138 0.406706 0.513182 -0.796595 -0.319502 191 182 103 1.000000
-0.583191 0.616525 0.230039 0.308953 -0.168134 -0.936098 40 102 40 1.000000
-0.138983 0.108589 0.080384 -0.476665 0.878634 -0.028165 40 102 40 1.000000
-0.087162 -0.399745 0.804618 -0.034300 0.999237 0.018687 201 192 113 1.000000
-0.182637 0.043178 -0.090145 -0.690374 0.654269 -0.308731 40 102 40 1.000000
-0.134415 -0.150456 -0.616453 -0.955905 -0.293675 -0.000000 222 210 174 1.000000
0.123474 -0.438973 0.642428 0.000000 -0.999903 0.013962 198 198 198 1.000000
-0.149584 -0.249426 -0.501036 -0.000000 -0.000000 1.000000 206 189 147 1.000000
0.067001 0.005287 0.444598 -0.369583 -0.602592 -0.707313 40 102 40 1.000000
-0.265020 0.503737 0.122801 0.192450 -0.973041 0.127102 40 102 40 1.000000
0.193345 0.001475 -0.742861 -0.000000 -0.000000 1.000000 202 193 114 1.000000
-0.057654 -0.294307 0.545407 -0.615366 -0.388757 -0.685706 204 190 133 1.000000
-0.174164 -0.144208 0.018380 0.984117 0.177523 0.000000 185 165 92 1.000000
-0.068923 0.024965 0.432196 0.293472 -0.692357 -0.659178 40 102 40 1.000000
-0.042732 -0.284760 -0.649567 0.236104 0.971728 0.000000 218 207 173 1.000000
-0.136562 -0.074486 -0.582585 0.968531 -0.248893 -0.000000 200 183 143 1.000000
-0.313128 0.691087 0.112650 -0.172682 -0.984844 -0.016236 40 102 40 1.000000
0.117326 -0.072156 0.618092 0.672711 0.580485 0.458800 198 189 110 1.000000
0.171689 -0.077989 0.169840 0.980093 0.198541 0.000000 197 189 110 1.000000
0.059768 0.042485 -0.959184 0.000000 0.000000 1.000000 191 174 108 1.000000
-0.168101 -0.168837 -0.823396 0.948403 0.317069 0.000000 197 181 120 1.000000
-0.292645 0.566582 0.103400 0.684998 0.701282 0.197437 40 102 40 1.000000
0.164933 -0.390060 0.588394 -0.942904 0.038610 0.330818 176 157 77 1.000000
0.055053 0.210819 0.202823 0.525731 0.447214 0.723607 219 208 168 1.000000
-0.128035 0.072273 0.309581 -0.483662 0.802475 0.349435 40 102 40 1.000000
0.135187 -0.000075 0.337207 -0.774992 -0.631944 0.005780 186 166 93 1.000000
0.084523 -0.267799 0.221944 0.483470 -0.875361 -0.000000 196 188 109 1.000000
-0.007929 0.063403 0.272484 -0.150089 0.988672 0.000000 194 185 106 1.000000
0.001031 0.006213 -0.262889 -0.044659 -0.633481 0.772469 40 102 40 1.000000
0.091133 -0.105267 -0.442484 0.991445 0.130526 0.000000 197 180 115 1.000000
0.524603 0.711079 0.101377 -0.118990 0.989543 -0.081528 40 102 40 1.000000
-0.085934 -0.076741 -0.437432 0.923880 -0.382683 -0.000000 196 200 101 1.000000
-0.001716 -0.437793 0.726920 -0.000000 0.999903 -0.013962 222 210 174 1.000000
-0.432390 0.502258 0.112712 -0.624606 0.780928 0.004311 40 102 40 1.000000
0.023477 -0.437369 0.757233 0.000000 -0.999903 0.013962 198 198 198 1.000000
0.064805 0.104890 -0.656967 -0.500000 -0.866025 -0.000000 222 210 174 1.000000
-0.152047 -0.131563 0.626385 0.855504 -0.365682 -0.366591 215 201 160 1.000000
-0.035717 0.154252 -0.029803 -0.500000 0.000000 -0.866025 200 183 143 1.000000
-0.088430 -0.143174 0.130762 -0.945194 -0.326509 0.000000 221 209 171 1.000000
0.172225 -0.082056 -0.166375 0.984445 0.175693 0.000000 198 190 111 1.000000
0.063825 0.050434 -0.097364 0.368716 0.929542 0.000000 199 190 111 1.000000
0.154400 -0.524276 0.576655 -0.046955 -0.998690 0.020334 201 192 113 1.000000
-0.061644 0.226738 0.010152 0.000000 0.447214 -0.894427 183 163 90 1.000000
-0.091754 -0.131012 -0.569675 -0.991445 -0.130526 0.000000 210 195 144 1.000000
-0.090881 -0.003080 -0.718555 -0.646720 0.762727 0.000000 220 210 173 1.000000
-0.393237 0.633054 0.095106 -0.929192 -0.333321 0.159685 40 102 40 1.000000
-0.026149 -0.344614 -0.501036 -0.000000 -0.000000 1.000000 195 181 133 1.000000
0.009280 0.307079 0.092602 0.000000 1.000000 0.000000 222 210 174 1.000000
-0.151979 0.555108 0.090708 -0.487692 -0.772489 -0.406715 40 102 40 1.000000
-0.194975 -0.183887 -0.742861 -0.000000 -0.000000 1.000000 205 196 117 1.000000
0.535769 0.652243 0.214096 0.116836 -0.490341 -0.863664 40 102 40 1.000000
-0.126607 -0.169305 -0.560568 -0.902913 -0.429823 -0.000000 220 210 173 1.000000
0.157705 -0.516096 0.751022 -0.045996 0.998647 -0.024243 202 193 114 1.000000
-0.172577 -0.069674 0.026209 0.969610 -0.244656 -0.000000 187 168 98 1.000000
-0.048190 0.057731 0.001532 -0.266502 0.963834 0.000000 195 186 107 1.000000
-0.657322 0.549479 0.068832 -0.829093 -0.402729 -0.387832 40 102 40 1.000000
0.129177 -0.159519 -0.609441 0.932956 -0.359991 -0.000000 220 210 173 1.000000
-0.127932 -0.288078 -0.536574 0.500000 0.866025 0.000000 220 210 173 1.000000
0.138409 -0.222367 -0.742861 -0.000000 -0.000000 1.000000 199 190 111 1.000000
0.154827 -0.029842 -0.128775 0.882297 0.470693 0.000000 203 194 115 1.000000
0.052572 -0.188263 -0.386468 -0.608761 0.793353 0.000000 196 187 108 1.000000
0.034243 -0.046216 -0.286247 0.238017 0.350300 -0.905891 40 102 40 1.000000
0.217603 -0.157838 -0.559192 -1.000000 0.000000 -0.000000 220 210 173 1.000000
0.384889 0.662465 0.034553 -0.155919 0.660178 -0.734748 40 102 40 1.000000
0.089370 -0.265185 -0.684771 0.510468 -0.859897 -0.000000 197 188 109 1.000000
0.508974 0.596434 0.105134 0.976675 0.089165 -0.195333 40 102 40 1.000000
0.022244 -0.203049 0.129282 -0.249761 0.968307 0.000000 212 201 159 1.000000
-0.050864 -0.282562 -0.521245 -0.282130 -0.959376 0.000000 199 190 111 1.000000
0.089977 -0.096486 -0.513635 0.991445 0.130526 0.000000 148 127 60 1.000000
0.121559 0.000543 0.470840 0.694364 0.691833 0.198056 199 191 114 1.000000
0.106995 0.552784 0.139965 0.423695 -0.739904 0.522518 40 102 40 1.000000
0.110178 0.544708 0.102404 0.426859 -0.890593 -0.156959 40 102 40 1.000000
0.104493 -0.310479 0.180779 -0.410789 0.903309 -0.123637 40 102 40 1.000000
-0.093691 -0.116296 -0.161862 -0.999357 -0.035863 0.000000 193 176 110 1.000000
-0.094333 0.030227 -0.501036 0.000000 0.000000 -1.000000 220 210 173 1.000000
-0.030903 0.184597 0.011643 -0.525731 -0.447214 -0.723607 216 204 166 1.000000
-0.075406 0.594735 0.005497 0.593213 0.037491 0.804172 40 102 40 1.000000
-0.082138 0.647726 0.064627 0.277646 0.728469 -0.626295 40 102 40 1.000000
0.026480 -0.454291 0.667608 0.000000 -0.999903 0.013962 220 210 173 1.000000
0.193441 0.536561 0.170225 -0.226554 -0.676751 0.700487 40 102 40 1.000000
-0.125950 -0.432118 0.490252 -0.603685 -0.011131 -0.797145 201 192 113 1.000000
-0.151138 -0.255065 0.711084 -0.850956 0.200474 0.485473 197 189 110 1.000000
-0.146953 -0.211480 0.184210 0.828885 0.559418 0.000000 186 165 94 1.000000
-0.241019 -0.129723 -0.062181 -0.951237 -0.145750 -0.271856 40 102 40 1.000000
0.037866 0.068568 0.378891 0.196384 0.843878 0.499303 40 102 40 1.000000
0.034820 -0.116680 0.721133 0.231958 0.600126 0.765535 197 201 102 1.000000
-0.547150 0.606676 0.238456 0.090022 -0.090665 -0.991804 40 102 40 1.000000
0.186447 -0.397442 0.677061 0.043957 0.999021 0.005084 203 194 115 1.000000
0.130849 0.066760 -0.672992 -0.500000 -0.866025 -0.000000 220 210 173 1.000000
-0.015467 0.143834 0.097603 -0.027685 0.999614 -0.002271 40 102 40 1.000000
0.057313 0.417720 0.114189 -0.994694 0.000000 -0.102881 220 210 173 1.000000
-0.065686 0.587250 0.163588 -0.399569 -0.112304 0.909798 40 102 40 1.000000
0.019950 0.424985 0.161254 0.333267 0.000000 0.942833 222 210 174 1.000000
0.071728 -0.169887 0.227818 0.787470 -0.616353 -0.000000 159 139 66 1.000000
0.246505 -0.066159 0.062587 -0.987093 -0.148994 0.058728 40 102 40 1.000000
-0.173467 -0.498622 0.739071 0.046760 -0.998897 0.004321 201 192 113 1.000000
0.153074 -0.025610 0.066954 -0.869887 -0.493251 0.000000 194 177 112 1.000000
-0.061738 0.131238 0.200267 0.195278 -0.969078 -0.150843 40 102 40 1.000000
-0.031961 0.094225 0.179183 -0.363432 0.000000 0.931621 222 210 174 1.000000
-0.166058 -0.456562 0.541198 -0.031450 0.998276 -0.049561 201 192 113 1.000000
0.002750 -0.020323 -0.060764 0.040342 0.999186 0.000000 176 157 77 1.000000
-0.637036 0.682563 0.108261 0.670478 -0.740624 0.043991 40 102 40 1.000000
-0.104108 0.134543 0.193326 0.500000 0.000000 -0.866025 222 210 174 1.000000
0.217603 -0.035532 -0.542068 1.000000 0.000000 0.000000 206 189 149 1.000000
0.153523 -0.013578 -0.742861 -0.000000 -0.000000 1.000000 198 189 110 1.000000
0.000517 -0.205909 0.016212 -0.016226 0.999868 0.000000 180 159 80 1.000000
-0.173127 -0.153339 0.397991 -0.975255 -0.218072 -0.036370 198 189 110 1.000000
0.147854 0.541970 0.054212 -0.249807 -0.652028 -0.715861 40 102 40 1.000000
-0.034315 0.038659 -0.230689 -0.125692 0.756201 -0.642154 40 102 40 1.000000
0.172938 -0.087477 -0.280425 -0.989429 -0.145015 0.000000 185 166 96 1.000000
-0.255752 -0.027953 0.067825 0.947290 -0.316538 0.049457 40 102 40 1.000000
0.091001 -0.181137 0.446689 0.496023 -0.481403 0.722643 40 102 40 1.000000
-0.189610 -0.420238 0.685862 0.047482 -0.998710 0.017971 201 192 113 1.000000
0.078095 -0.315612 -0.016022 -0.316425 0.932188 0.175786 40 102 40 1.000000
0.196975 -0.095822 0.352126 -0.890292 -0.016405 -0.455094 40 102 40 1.000000
-0.113682 0.077528 -0.518449 0.500000 -0.866025 -0.000000 222 210 174 1.000000
-0.092533 0.129919 0.068027 -0.302730 0.951971 -0.045888 40 102 40 1.000000
-0.073528 0.010236 -0.553554 -0.519798 0.854289 0.000000 222 210 174 1.000000
0.122443 -0.290390 -0.660222 0.500000 -0.866025 -0.000000 199 182 142 1.000000
0.129316 0.064087 0.303075 -0.549742 -0.763703 -0.338440 40 102 40 1.000000
-0.423607 0.575353 0.195515 -0.691743 0.172643 -0.701203 40 102 40 1.000000
0.138767 -0.006373 -0.613799 0.795119 0.606454 0.000000 188 180 101 1.000000
0.077163 0.123507 0.013963 0.307988 0.942748 -0.127948 40 102 40 1.000000
-0.096868 -0.234238 0.403766 -0.404513 -0.714516 0.570821 40 102 40 1.000000
0.014230 0.087805 0.198067 0.000000 1.000000 0.000000 220 210 173 1.000000
0.128117 -0.477221 0.509296 0.040381 0.998399 -0.039613 199 190 111 1.000000
-0.131957 0.007837 0.366012 -0.743658 0.668291 0.018941 197 188 109 1.000000
-0.140318 -0.242711 -0.157058 0.556325 0.702331 0.444110 40 102 40 1.000000
-0.017114 -0.110246 0.719630 0.176618 -0.616929 -0.766945 208 197 153 1.000000
0.061909 0.106562 -0.708274 0.500000 0.866025 0.000000 198 181 141 1.000000
0.053010 -0.328191 0.195455 -0.218994 0.965073 -0.143794 40 102 40 1.000000
0.078845 -0.296995 0.438131 0.454603 -0.700009 -0.550749 189 180 101 1.000000
0.112896 -0.412277 0.521752 0.041099 0.998464 -0.037155 199 190 111 1.000000
0.049038 0.210951 0.007105 -0.525731 0.447214 0.723607 205 191 140 1.000000
0.170815 -0.264309 0.659278 -0.972018 -0.096142 -0.214333 167 147 66 1.000000
0.229522 -0.181620 0.005813 -0.916193 0.371966 0.149101 40 102 40 1.000000
0.102146 -0.378765 0.789240 -0.587149 -0.082369 -0.805277 221 209 173 1.000000
0.081467 -0.269065 -0.070014 -0.467087 0.884212 0.000000 204 190 133 1.000000
0.046115 -0.032721 -0.367115 -0.608761 -0.793353 0.000000 200 192 113 1.000000
0.154483 -0.205286 0.420429 -0.880478 0.451102 0.145828 186 166 93 1.000000
-0.225275 -0.099592 0.325987 -0.918377 -0.002640 0.395698 40 102 40 1.000000
-0.054531 0.019015 -0.643387 -0.386377 0.922341 0.000000 220 210 173 1.000000
0.086656 -0.036027 -0.261785 0.493080 0.384389 -0.780460 40 102 40 1.000000
0.636297 0.505105 0.167091 -0.545269 0.712758 -0.441200 40 102 40 1.000000
0.320261 0.613850 0.129416 0.699837 0.527421 0.481721 40 102 40 1.000000
-0.149718 -0.258440 0.489222 0.843836 0.394475 0.363772 180 156 80 1.000000
-0.176245 -0.128403 0.143278 0.996145 0.087727 0.000000 207 193 142 1.000000
-0.050107 0.345398 0.083741 0.901579 0.000000 0.432615 222 210 174 1.000000
0.362577 0.693873 0.105170 -0.162992 0.984934 -0.057788 40 102 40 1.000000
0.068943 -0.271504 -0.742861 -0.000000 -0.000000 1.000000 198 189 110 1.000000
0.106949 0.025757 -0.551546 0.614087 0.789238 0.000000 193 185 106 1.000000
0.028341 -0.200769 -0.893950 0.382683 -0.923880 -0.000000 213 199 158 1.000000
-0.231444 0.005530 -0.006086 0.865586 -0.471641 0.168276 40 102 40 1.000000
-0.173083 -0.152419 -0.279111 0.974717 0.223442 0.000000 165 143 71 1.000000
0.217603 -0.141779 -0.526481 -1.000000 0.000000 -0.000000 220 210 173 1.000000
0.655612 0.563418 0.032176 0.683213 -0.244631 -0.688022 40 102 40 1.000000
0.060232 0.538793 0.117782 0.379996 -0.918112 0.112572 40 102 40 1.000000
0.174633 -0.192197 0.574822 0.997439 0.046224 0.054571 199 190 111 1.000000
0.148716 -0.287852 0.176451 0.574976 -0.809686 0.117523 40 102 40 1.000000
-0.052071 -0.437789 0.727210 0.000000 -0.999903 0.013962 198 198 198 1.000000
0.147644 -0.435933 0.523455 -0.023674 0.999373 0.026332 205 196 117 1.000000
-0.124536 0.611156 0.088227 0.982584 -0.090853 0.162092 40 102 40 1.000000
0.126545 0.579683 0.117632 -0.985443 0.155706 -0.068243 40 102 40 1.000000
-0.547824 0.674082 0.014616 -0.093654 0.620319 -0.778738 40 102 40 1.000000
0.007804 0.029901 -0.619821 0.061238 0.998123 0.000000 220 210 173 1.000000
-0.160466 -0.187269 -0.556564 0.906448 0.422317 0.000000 178 159 79 1.000000
-0.117556 0.075291 -0.613400 -0.500000 0.866025 0.000000 200 183 143 1.000000
0.442418 0.580971 0.116511 -0.899251 0.402117 -0.172192 40 102 40 1.000000
-0.048688 -0.069307 -0.292585 0.240645 -0.203272 0.949089 40 102 40 1.000000
-0.009221 -0.020915 -0.625359 -0.130526 0.991445 0.000000 203 190 134 1.000000
-0.074157 -0.122217 -0.310610 0.000000 0.000000 1.000000 191 174 109 1.000000
-0.067711 -0.048232 -0.512234 0.793353 -0.608761 -0.000000 196 188 111 1.000000
0.010784 0.109945 0.297427 0.071406 0.945406 0.317977 40 102 40 1.000000
0.030638 0.409728 0.059002 0.511171 0.000000 -0.859479 220 210 173 1.000000
0.138341 -0.442497 0.722528 0.900425 0.006074 0.434968 217 207 170 1.000000
0.394875 0.582325 0.213661 0.153892 0.109205 -0.982034 40 102 40 1.000000
0.441729 0.698077 0.082196 -0.140560 0.954270 -0.263842 40 102 40 1.000000
-0.204691 -0.243761 -0.536724 0.500000 0.866025 0.000000 220 210 173 1.000000
-0.137522 -0.454839 0.557846 -0.026833 0.998273 -0.052268 201 192 113 1.000000
0.027408 -0.286516 -0.938781 -0.161494 0.986874 0.000000 180 161 83 1.000000
-0.167510 -0.265227 -0.669006 -0.500000 -0.866025 -0.000000 198 191 132 1.000000
0.051412 -0.034774 0.346312 0.567604 0.823296 0.003187 203 185 127 1.000000
-0.188701 -0.194550 -0.139586 -0.772599 -0.475115 -0.421137 40 102 40 1.000000
0.085286 -0.276728 0.655072 -0.934447 -0.136469 -0.328916 206 197 118 1.000000
-0.167141 -0.171154 -0.173949 -0.943801 -0.330515 0.000000 199 190 111 1.000000
0.012322 -0.271598 0.376922 -0.085767 0.865294 -0.493873 40 102 40 1.000000
0.417851 0.697072 0.131642 -0.147665 0.969957 0.193334 40 102 40 1.000000
-0.012987 -0.288676 -0.832318 0.068111 0.997678 0.000000 204 189 134 1.000000
0.020956 0.640577 0.055856 0.350977 0.000000 -0.936384 220 210 173 1.000000
0.129087 0.154538 0.147909 1.000000 0.000000 0.000000 207 190 150 1.000000
0.062739 -0.045477 -0.561771 0.608761 0.793353 0.000000 180 158 84 1.000000
0.009937 -0.021270 -0.337308 -0.130526 -0.991445 0.000000 200 191 112 1.000000
-0.094015 -0.113840 -0.859596 -0.991445 -0.130526 0.000000 222 210 174 1.000000
0.089446 -0.133489 0.188912 0.975211 -0.221276 -0.000000 182 161 84 1.000000
-0.298000 0.628303 0.200162 0.178087 0.355853 0.917417 40 102 40 1.000000
0.146614 -0.209339 -0.105703 -0.837338 0.546686 0.000000 219 209 172 1.000000
0.172392 -0.142609 -0.359270 0.985701 -0.168506 -0.000000 195 187 108 1.000000
0.148798 -0.206492 -0.796414 0.848242 -0.529609 -0.000000 204 195 116 1.000000
0.014070 -0.288272 -0.702609 0.085602 -0.996329 -0.000000 195 187 108 1.000000
-0.165789 0.085979 0.012575 -0.585984 0.799396 -0.132622 40 102 40 1.000000
0.160539 -0.182308 -0.184383 0.918915 -0.394455 -0.000000 193 185 106 1.000000
0.100801 -0.145876 0.453671 0.569714 -0.286883 0.770146 40 102 40 1.000000
-0.144057 0.059991 -0.693793 0.500000 -0.866025 -0.000000 222 210 174 1.000000
0.136001 -0.002769 -0.180594 0.779182 0.626797 0.000000 195 187 108 1.000000
