0.386476 -0.071912 -0.571826 0.600000 0.000000 0.300000
0.304669 0.033884 -0.689032 0.600000 0.000000 0.300000
0.190115 0.045055 -0.487073 0.600000 0.000000 0.300000
-0.394414 -0.001701 -0.138494 0.500000 0.000000 0.500000
0.277159 -0.044393 0.323485 0.000000 0.500000 0.500000
0.264631 0.045055 -0.346582 0.600000 0.000000 0.300000
0.309533 -0.063719 -0.562351 0.600000 0.000000 0.300000
-0.236546 -0.025095 -0.058214 0.300000 0.600000 0.000000
0.336206 0.068510 0.653163 0.000000 0.500000 0.500000
-0.378439 -0.001701 0.149292 0.300000 0.600000 0.000000
0.048561 0.004916 0.588503 0.000000 0.500000 0.500000
0.336159 -0.048457 0.774912 0.000000 0.500000 0.500000
0.314519 0.068510 0.699217 0.000000 0.500000 0.500000
0.336572 -0.005708 -0.815181 0.600000 0.000000 0.300000
0.352395 -0.048457 0.704620 0.000000 0.500000 0.500000
0.030291 0.030736 0.456212 0.000000 0.500000 0.500000
0.385317 0.068510 0.661896 0.000000 0.500000 0.500000
-0.340918 0.021692 -0.011433 0.500000 0.500000 0.000000
0.195775 -0.071912 -0.460892 0.600000 0.000000 0.300000
-0.144012 -0.001701 0.043686 0.500000 0.000000 0.500000
0.409269 -0.071912 -0.719542 0.600000 0.000000 0.300000
0.321348 0.037442 -0.398080 0.600000 0.000000 0.300000
0.173213 -0.037155 -0.230003 0.600000 0.000000 0.300000
0.328581 -0.016808 -0.821575 0.600000 0.000000 0.300000
-0.803290 0.021692 0.437914 0.300000 0.600000 0.000000
0.322180 -0.011784 -0.595420 0.600000 0.000000 0.300000
0.107971 0.038935 0.608996 0.000000 0.500000 0.500000
0.309735 -0.071912 -0.434720 0.600000 0.000000 0.300000
-0.059629 -0.001701 0.170286 0.500000 0.000000 0.500000
0.162185 -0.071912 -0.824008 0.600000 0.000000 0.300000
0.295169 -0.071912 -0.713935 0.600000 0.000000 0.300000
0.037111 -0.008108 -0.367480 0.600000 0.000000 0.300000
0.037335 -0.042804 -0.610418 0.600000 0.000000 0.300000
-0.756769 0.021692 0.433793 0.300000 0.600000 0.000000
0.254348 0.034640 0.717609 0.000000 0.500000 0.500000
0.077025 -0.001701 0.312693 0.500000 0.000000 0.500000
0.058245 -0.029871 0.658628 0.000000 0.500000 0.500000
0.206033 -0.071912 -0.294312 0.600000 0.000000 0.300000
0.302156 0.045055 -0.774623 0.600000 0.000000 0.300000
0.341690 -0.031204 0.807138 0.000000 0.500000 0.500000
-0.198629 -0.025095 -0.030916 0.300000 0.600000 0.000000
-0.565190 0.018402 -0.331306 0.500000 0.000000 0.500000
0.419089 -0.008797 0.483628 0.000000 0.500000 0.500000
0.079360 0.045055 -0.343762 0.600000 0.000000 0.300000
-0.106004 -0.025095 -0.230923 0.300000 0.600000 0.000000
0.331011 -0.071912 -0.480127 0.600000 0.000000 0.300000
-0.442520 0.021692 -0.004371 0.500000 0.000000 0.500000
0.139963 0.068510 0.724291 0.000000 0.500000 0.500000
-0.181305 -0.001701 0.206597 0.500000 0.000000 0.500000
-0.043838 -0.001701 -0.104030 0.300000 0.600000 0.000000
0.305715 0.065945 0.526763 0.000000 0.500000 0.500000
0.315897 0.045055 -0.750754 0.600000 0.000000 0.300000
0.454297 0.023483 0.577103 0.000000 0.500000 0.500000
0.134456 -0.048457 0.712202 0.000000 0.500000 0.500000
0.049814 0.068510 0.513742 0.000000 0.500000 0.500000
-0.338661 -0.025095 -0.083904 0.300000 0.600000 0.000000
-0.643831 -0.019571 -0.380775 0.500000 0.000000 0.500000
0.268985 0.037618 -0.722337 0.600000 0.000000 0.300000
0.110426 0.068510 0.746979 0.000000 0.500000 0.500000
0.219932 0.000077 -0.283012 0.600000 0.000000 0.300000
0.331388 -0.030237 -0.409472 0.600000 0.000000 0.300000
-0.571611 0.009713 -0.095826 0.500000 0.000000 0.500000
0.083379 -0.071912 -0.783240 0.600000 0.000000 0.300000
0.191520 -0.048457 0.266724 0.000000 0.500000 0.500000
-0.021983 -0.001701 0.295360 0.500000 0.000000 0.500000
0.314728 -0.052693 -0.569714 0.600000 0.000000 0.300000
0.166452 -0.048457 0.211445 0.000000 0.500000 0.500000
-0.413647 -0.001701 0.064989 0.300000 0.600000 0.000000
-0.406547 0.021692 0.016049 0.500000 0.000000 0.500000
0.264433 0.006110 0.714469 0.000000 0.500000 0.500000
-0.100135 -0.012218 -0.299621 0.300000 0.600000 0.000000
0.191345 0.068510 0.245081 0.000000 0.500000 0.500000
-0.529864 -0.025095 0.176387 0.300000 0.600000 0.000000
0.121102 -0.012425 -0.546818 0.600000 0.000000 0.300000
-0.409355 -0.025095 0.198002 0.300000 0.600000 0.000000
0.149417 -0.036181 -0.719534 0.600000 0.000000 0.300000
0.068280 -0.007166 -0.805820 0.600000 0.000000 0.300000
0.454555 -0.011215 0.598043 0.000000 0.500000 0.500000
-0.202926 -0.001701 -0.029864 0.500000 0.000000 0.500000
0.105618 0.001136 0.804444 0.000000 0.500000 0.500000
0.211045 0.014611 -0.272929 0.600000 0.000000 0.300000
0.078313 0.045055 -0.732925 0.600000 0.000000 0.300000
-0.227412 -0.001701 0.131301 0.500000 0.000000 0.500000
-0.721014 0.021692 -0.395864 0.500000 0.000000 0.500000
0.090298 0.045055 -0.620438 0.600000 0.000000 0.300000
0.254965 -0.036519 0.494799 0.000000 0.500000 0.500000
0.381949 -0.044747 -0.778871 0.600000 0.000000 0.300000
-0.373430 -0.001701 0.021187 0.500000 0.000000 0.500000
-0.378208 -0.001701 0.010161 0.500000 0.000000 0.500000
-0.468037 -0.001701 -0.165434 0.500000 0.000000 0.500000
0.000391 -0.001701 0.186720 0.500000 0.000000 0.500000
-0.510988 -0.001701 0.206803 0.300000 0.600000 0.000000
0.163383 0.053605 0.832038 0.000000 0.500000 0.500000
-0.428507 -0.025095 0.069315 0.300000 0.600000 0.000000
-0.441574 -0.001701 0.107705 0.300000 0.600000 0.000000
-0.254821 -0.025095 0.005663 0.300000 0.600000 0.000000
0.181866 -0.071912 -0.459642 0.600000 0.000000 0.300000
0.409472 0.014926 0.472083 0.000000 0.500000 0.500000
0.075158 -0.071912 -0.640883 0.600000 0.000000 0.300000
-0.257757 -0.001701 -0.122128 0.300000 0.600000 0.000000
-0.071678 0.015699 0.308404 0.500000 0.000000 0.500000
0.454434 -0.035568 0.599375 0.000000 0.500000 0.500000
0.277039 -0.048457 0.744939 0.000000 0.500000 0.500000
0.054519 -0.071912 -0.752449 0.600000 0.000000 0.300000
0.220260 -0.009344 0.261430 0.000000 0.500000 0.500000
-0.542122 -0.001701 0.225364 0.300000 0.600000 0.000000
-0.556906 -0.001701 0.093911 0.300000 0.600000 0.000000
0.124822 -0.036886 -0.543841 0.600000 0.000000 0.300000
0.116321 -0.048457 0.433827 0.000000 0.500000 0.500000
-0.054491 -0.025095 -0.185457 0.300000 0.600000 0.000000
0.313511 -0.059736 -0.672971 0.600000 0.000000 0.300000
0.116836 -0.071912 -0.764821 0.600000 0.000000 0.300000
-0.415127 0.021692 -0.067798 0.500000 0.000000 0.500000
-0.230328 -0.025095 -0.147083 0.300000 0.600000 0.000000
0.285437 -0.037064 0.332514 0.000000 0.500000 0.500000
0.070676 0.003511 -0.327599 0.600000 0.000000 0.300000
-0.472118 -0.001701 0.209180 0.300000 0.600000 0.000000
0.094470 0.068510 0.678077 0.000000 0.500000 0.500000
0.163135 -0.048457 0.825297 0.000000 0.500000 0.500000
0.064940 -0.048457 0.490418 0.000000 0.500000 0.500000
0.152344 0.004731 0.223051 0.000000 0.500000 0.500000
-0.191955 -0.001701 -0.116206 0.300000 0.600000 0.000000
0.327556 -0.048457 0.795327 0.000000 0.500000 0.500000
0.196048 -0.048457 0.729060 0.000000 0.500000 0.500000
0.234247 0.045055 -0.805025 0.600000 0.000000 0.300000
-0.447029 -0.025095 0.193303 0.300000 0.600000 0.000000
0.360666 -0.048457 0.435975 0.000000 0.500000 0.500000
0.064432 -0.025095 -0.277280 0.300000 0.600000 0.000000
-0.316611 -0.025095 0.021579 0.500000 0.500000 0.000000
0.022229 0.009520 -0.482523 0.600000 0.000000 0.300000
0.115117 0.005043 0.645433 0.000000 0.500000 0.500000
0.042191 -0.024132 0.542380 0.000000 0.500000 0.500000
0.022664 0.034165 -0.486207 0.600000 0.000000 0.300000
0.202025 -0.048457 0.831952 0.000000 0.500000 0.500000
-0.400224 -0.001701 -0.023594 0.500000 0.000000 0.500000
-0.170713 -0.001701 -0.060032 0.300000 0.600000 0.000000
0.098407 -0.021857 -0.647549 0.600000 0.000000 0.300000
-0.497279 -0.001701 0.252748 0.300000 0.600000 0.000000
0.114706 0.068510 0.314773 0.000000 0.500000 0.500000
0.062677 -0.028694 0.690723 0.000000 0.500000 0.500000
0.140217 -0.048457 0.745285 0.000000 0.500000 0.500000
0.098276 -0.071912 -0.323429 0.600000 0.000000 0.300000
-0.672606 -0.025095 -0.403307 0.500000 0.000000 0.500000
-0.031626 -0.001701 -0.229046 0.300000 0.600000 0.000000
0.090927 -0.048457 0.435815 0.000000 0.500000 0.500000
0.433797 0.006595 -0.568424 0.600000 0.000000 0.300000
-0.041668 0.021692 0.264842 0.500000 0.000000 0.500000
0.364710 0.034019 0.418971 0.000000 0.500000 0.500000
-0.103453 0.021692 0.263367 0.500000 0.000000 0.500000
0.185572 0.044432 0.716856 0.000000 0.500000 0.500000
0.394763 -0.029560 0.454424 0.000000 0.500000 0.500000
0.312120 0.042839 0.682465 0.000000 0.500000 0.500000
-0.474796 0.021692 -0.172514 0.500000 0.000000 0.500000
0.304738 0.045055 -0.450870 0.600000 0.000000 0.300000
0.288158 0.045055 -0.432815 0.600000 0.000000 0.300000
0.403814 -0.071912 -0.654521 0.600000 0.000000 0.300000
0.202366 0.045055 -0.756801 0.600000 0.000000 0.300000
0.041221 -0.062964 -0.643316 0.600000 0.000000 0.300000
0.375280 -0.048457 0.704705 0.000000 0.500000 0.500000
-0.029525 -0.001701 -0.303317 0.300000 0.600000 0.000000
0.304127 0.045055 -0.692951 0.600000 0.000000 0.300000
0.309054 0.001401 0.358271 0.000000 0.500000 0.500000
-0.612771 -0.001701 -0.344684 0.500000 0.000000 0.500000
-0.460070 -0.001701 0.067877 0.300000 0.600000 0.000000
0.086099 -0.048457 0.369812 0.000000 0.500000 0.500000
0.051600 0.037950 -0.731186 0.600000 0.000000 0.300000
-0.727820 -0.025095 0.426058 0.300000 0.600000 0.000000
-0.855505 0.021323 0.441297 0.300000 0.600000 0.000000
0.107303 0.017186 0.616334 0.000000 0.500000 0.500000
0.198810 -0.048457 0.304603 0.000000 0.500000 0.500000
0.145210 -0.048457 0.300124 0.000000 0.500000 0.500000
0.206088 0.068510 0.380060 0.000000 0.500000 0.500000
0.407600 0.045055 -0.512675 0.600000 0.000000 0.300000
0.397792 0.007081 -0.489035 0.600000 0.000000 0.300000
0.235509 0.063187 0.838612 0.000000 0.500000 0.500000
0.263560 0.068510 0.409240 0.000000 0.500000 0.500000
0.248011 -0.003710 0.719582 0.000000 0.500000 0.500000
0.441261 0.060129 0.685626 0.000000 0.500000 0.500000
0.014034 -0.058845 -0.394900 0.600000 0.000000 0.300000
0.320904 0.045055 -0.772805 0.600000 0.000000 0.300000
0.072061 0.034571 0.758676 0.000000 0.500000 0.500000
0.061098 0.068510 0.509039 0.000000 0.500000 0.500000
0.103554 0.068510 0.395339 0.000000 0.500000 0.500000
0.333382 -0.048457 0.454453 0.000000 0.500000 0.500000
-0.057237 -0.025095 -0.294683 0.300000 0.600000 0.000000
0.145037 0.012457 0.692355 0.000000 0.500000 0.500000
0.149528 0.030125 -0.233905 0.600000 0.000000 0.300000
-0.556516 0.021692 -0.172600 0.500000 0.000000 0.500000
-0.468934 -0.001701 0.237554 0.300000 0.600000 0.000000
0.141441 -0.071912 -0.823012 0.600000 0.000000 0.300000
0.073213 -0.048457 0.699785 0.000000 0.500000 0.500000
0.343134 -0.071912 -0.632359 0.600000 0.000000 0.300000
-0.381982 0.014521 -0.183170 0.500000 0.000000 0.500000
0.301425 -0.034448 -0.552218 0.600000 0.000000 0.300000
-0.906237 0.021692 -0.395578 0.500000 0.000000 0.500000
-0.630687 0.021692 -0.279679 0.500000 0.000000 0.500000
0.282268 -0.030426 -0.353739 0.600000 0.000000 0.300000
0.373164 -0.048457 0.676566 0.000000 0.500000 0.500000
-0.170723 -0.001701 0.198173 0.500000 0.000000 0.500000
0.409592 -0.048457 0.714168 0.000000 0.500000 0.500000
-0.462978 -0.001701 -0.220696 0.500000 0.000000 0.500000
0.021095 -0.001701 -0.258781 0.300000 0.600000 0.000000
-0.075881 -0.001701 0.122428 0.500000 0.000000 0.500000
0.347129 -0.020164 0.399797 0.000000 0.500000 0.500000
0.411305 0.068510 0.580539 0.000000 0.500000 0.500000
0.105380 0.068510 0.654783 0.000000 0.500000 0.500000
0.263693 -0.071912 -0.350950 0.600000 0.000000 0.300000
0.424143 -0.048457 0.591548 0.000000 0.500000 0.500000
-0.167302 0.021692 0.157569 0.500000 0.000000 0.500000
0.244476 0.015109 -0.310859 0.600000 0.000000 0.300000
0.037510 -0.071912 -0.545770 0.600000 0.000000 0.300000
0.057966 0.020121 0.656606 0.000000 0.500000 0.500000
-0.413629 -0.001701 -0.033166 0.500000 0.000000 0.500000
-0.201955 -0.001701 -0.072184 0.300000 0.600000 0.000000
0.391004 -0.007371 -0.770082 0.600000 0.000000 0.300000
0.065841 0.045055 -0.719584 0.600000 0.000000 0.300000
0.430581 -0.038880 0.500922 0.000000 0.500000 0.500000
0.176437 -0.059817 -0.733850 0.600000 0.000000 0.300000
0.247037 -0.014959 0.290633 0.000000 0.500000 0.500000
0.306406 0.045055 -0.729481 0.600000 0.000000 0.300000
-0.834828 -0.006746 -0.444118 0.500000 0.000000 0.500000
0.107759 -0.071912 -0.393852 0.600000 0.000000 0.300000
0.426814 -0.013031 0.713134 0.000000 0.500000 0.500000
-0.160886 -0.025095 -0.037465 0.300000 0.600000 0.000000
-0.547689 0.021692 -0.103226 0.500000 0.000000 0.500000
-0.036596 -0.001701 0.260936 0.500000 0.000000 0.500000
0.123281 0.016447 0.258996 0.500000 0.000000 0.500000
0.345435 -0.048457 0.565337 0.000000 0.500000 0.500000
0.070321 -0.001252 0.746076 0.000000 0.500000 0.500000
-0.842200 0.021692 -0.412813 0.500000 0.000000 0.500000
-0.463253 -0.001701 -0.035905 0.500000 0.000000 0.500000
0.039425 -0.018990 -0.628106 0.600000 0.000000 0.300000
0.275441 -0.071912 -0.812908 0.600000 0.000000 0.300000
-0.198221 -0.001701 -0.159547 0.300000 0.600000 0.000000
-0.266249 -0.001701 -0.138549 0.300000 0.600000 0.000000
0.236712 -0.037857 0.493136 0.000000 0.500000 0.500000
-0.874255 0.016926 -0.431475 0.500000 0.000000 0.500000
0.022873 -0.023733 -0.384398 0.600000 0.000000 0.300000
-0.194959 -0.025095 -0.137949 0.300000 0.600000 0.000000
0.385856 0.040974 0.443730 0.000000 0.500000 0.500000
0.193575 -0.003334 -0.253106 0.600000 0.000000 0.300000
0.042012 -0.036994 -0.361657 0.600000 0.000000 0.300000
-0.159861 -0.025095 -0.089003 0.300000 0.600000 0.000000
-0.040237 -0.001701 0.225794 0.500000 0.000000 0.500000
-0.860167 0.021692 -0.413028 0.500000 0.000000 0.500000
0.081277 0.068510 0.359621 0.000000 0.500000 0.500000
0.069550 0.045055 -0.434113 0.600000 0.000000 0.300000
0.027168 -0.054581 -0.524344 0.600000 0.000000 0.300000
0.101539 -0.048457 0.753409 0.000000 0.500000 0.500000
0.132863 0.068510 0.458666 0.000000 0.500000 0.500000
0.132716 0.045055 -0.710485 0.600000 0.000000 0.300000
0.191545 0.068510 0.466973 0.000000 0.500000 0.500000
-0.518587 -0.001701 -0.275524 0.500000 0.000000 0.500000
0.288220 -0.018610 0.335549 0.000000 0.500000 0.500000
-0.511890 -0.025095 0.196809 0.300000 0.600000 0.000000
0.108607 -0.013759 -0.230694 0.300000 0.600000 0.000000
0.278856 -0.071912 -0.758424 0.600000 0.000000 0.300000
-0.218216 -0.001701 -0.022981 0.300000 0.600000 0.000000
0.427201 0.008414 0.712396 0.000000 0.500000 0.500000
0.302488 0.029433 0.522890 0.000000 0.500000 0.500000
-0.614306 -0.009438 0.143139 0.300000 0.600000 0.000000
-0.511624 -0.001701 -0.121181 0.500000 0.000000 0.500000
0.069545 -0.032078 0.740457 0.000000 0.500000 0.500000
-0.205670 -0.025095 -0.174449 0.300000 0.600000 0.000000
-0.252333 -0.025095 -0.105761 0.300000 0.600000 0.000000
-0.111192 -0.000363 0.035782 0.500000 0.000000 0.500000
0.291295 0.045055 -0.522526 0.600000 0.000000 0.300000
0.067935 -0.001701 -0.301859 0.300000 0.600000 0.000000
0.343463 -0.043519 -0.423172 0.600000 0.000000 0.300000
0.355621 0.068510 0.575576 0.000000 0.500000 0.500000
-0.227564 -0.001701 -0.100101 0.300000 0.600000 0.000000
0.129163 -0.071912 -0.746728 0.600000 0.000000 0.300000
-0.308483 0.021692 -0.071936 0.500000 0.000000 0.500000
0.292502 0.004485 -0.703519 0.600000 0.000000 0.300000
0.423622 -0.045453 -0.533323 0.600000 0.000000 0.300000
-0.146208 0.014603 0.248141 0.500000 0.000000 0.500000
-0.424778 0.021692 0.000931 0.500000 0.000000 0.500000
0.390583 -0.018633 0.449404 0.000000 0.500000 0.500000
-0.885055 -0.002835 -0.422479 0.500000 0.000000 0.500000
0.240224 0.068510 0.404665 0.000000 0.500000 0.500000
0.048678 -0.048323 -0.706448 0.600000 0.000000 0.300000
-0.504113 -0.001701 0.138768 0.300000 0.600000 0.000000
0.033646 -0.025095 -0.296631 0.300000 0.600000 0.000000
0.346454 -0.044213 0.803170 0.000000 0.500000 0.500000
0.337871 0.006866 0.589068 0.000000 0.500000 0.500000
0.256130 0.068510 0.305206 0.000000 0.500000 0.500000
0.238974 -0.000626 -0.304618 0.600000 0.000000 0.300000
-0.271854 0.005726 0.146548 0.500000 0.000000 0.500000
0.312110 -0.042679 0.361604 0.000000 0.500000 0.500000
0.350667 -0.071912 -0.746796 0.600000 0.000000 0.300000
-0.075036 0.021692 0.170468 0.500000 0.000000 0.500000
0.271860 0.061381 0.832307 0.000000 0.500000 0.500000
0.086749 0.068510 0.391728 0.000000 0.500000 0.500000
-0.392678 -0.025095 0.153567 0.300000 0.600000 0.000000
0.330917 -0.048457 0.681120 0.000000 0.500000 0.500000
0.132152 0.045055 -0.280033 0.600000 0.000000 0.300000
-0.887414 0.021692 -0.409523 0.500000 0.000000 0.500000
-0.151878 -0.001701 0.064602 0.500000 0.000000 0.500000
0.124147 0.016420 -0.264063 0.600000 0.000000 0.300000
0.113005 0.049852 0.271704 0.000000 0.500000 0.500000
-0.160856 -0.025095 -0.239348 0.300000 0.600000 0.000000
-0.266913 0.021692 0.032177 0.500000 0.000000 0.500000
0.322404 -0.071912 -0.687241 0.600000 0.000000 0.300000
-0.046319 -0.025095 -0.251389 0.300000 0.600000 0.000000
0.427423 0.068510 0.661398 0.000000 0.500000 0.500000
0.276870 0.031667 0.323170 0.000000 0.500000 0.500000
-0.445334 0.021692 -0.026868 0.500000 0.000000 0.500000
-0.400848 0.021692 -0.021944 0.500000 0.000000 0.500000
0.021408 -0.053209 -0.386139 0.600000 0.000000 0.300000
0.363356 0.068510 0.530181 0.000000 0.500000 0.500000
-0.506035 -0.001701 0.189632 0.300000 0.600000 0.000000
0.404774 0.045055 -0.537503 0.600000 0.000000 0.300000
0.023905 -0.061272 -0.496713 0.600000 0.000000 0.300000
0.137055 -0.071912 -0.275005 0.600000 0.000000 0.300000
-0.015571 -0.025095 -0.306172 0.300000 0.600000 0.000000
-0.074612 -0.012447 -0.321101 0.300000 0.600000 0.000000
-0.077471 -0.001701 0.247806 0.500000 0.000000 0.500000
-0.097979 0.021692 0.170664 0.500000 0.000000 0.500000
0.288736 0.068510 0.483395 0.000000 0.500000 0.500000
0.133979 -0.048457 0.508890 0.000000 0.500000 0.500000
0.054027 0.068510 0.442408 0.000000 0.500000 0.500000
-0.196954 -0.001701 -0.002792 0.500000 0.000000 0.500000
-0.607746 -0.025095 0.311066 0.300000 0.600000 0.000000
-0.077920 -0.001701 0.215121 0.500000 0.000000 0.500000
0.021410 -0.001701 0.277093 0.500000 0.000000 0.500000
-0.393331 -0.020594 -0.052866 0.300000 0.600000 0.000000
0.108145 -0.021562 0.607094 0.000000 0.500000 0.500000
0.063235 0.045055 -0.596295 0.600000 0.000000 0.300000
-0.499976 0.021692 -0.084833 0.500000 0.000000 0.500000
0.065276 0.035134 0.709541 0.000000 0.500000 0.500000
0.119501 0.011165 -0.549634 0.600000 0.000000 0.300000
0.418294 -0.047863 -0.514944 0.600000 0.000000 0.300000
-0.012652 -0.025095 -0.323469 0.300000 0.600000 0.000000
0.443264 0.068510 0.638139 0.000000 0.500000 0.500000
0.129030 0.044736 0.251885 0.000000 0.500000 0.500000
0.069812 -0.001701 0.273626 0.500000 0.000000 0.500000
0.347393 0.044005 -0.427631 0.600000 0.000000 0.300000
0.141522 0.026289 -0.845399 0.600000 0.000000 0.300000
0.196586 -0.071912 -0.743234 0.600000 0.000000 0.300000
0.248113 -0.048457 0.791550 0.000000 0.500000 0.500000
0.050068 -0.002628 -0.352085 0.600000 0.000000 0.300000
-0.064292 -0.025095 -0.099529 0.300000 0.600000 0.000000
-0.586960 -0.025095 0.115678 0.300000 0.600000 0.000000
0.429223 0.068510 0.543994 0.000000 0.500000 0.500000
-0.039094 0.021692 0.276388 0.500000 0.000000 0.500000
-0.450765 0.021692 -0.210927 0.500000 0.000000 0.500000
0.125400 -0.018625 0.256374 0.000000 0.500000 0.500000
0.110750 0.045055 -0.813304 0.600000 0.000000 0.300000
0.102627 0.018737 -0.662108 0.600000 0.000000 0.300000
-0.625179 -0.001516 -0.255091 0.500000 0.000000 0.500000
0.121877 -0.005173 0.664550 0.000000 0.500000 0.500000
0.155287 -0.048457 0.238466 0.000000 0.500000 0.500000
-0.078631 0.021692 0.115129 0.500000 0.000000 0.500000
-0.125941 0.021692 0.093471 0.500000 0.000000 0.500000
0.023999 -0.016444 0.410654 0.000000 0.500000 0.500000
0.161352 -0.071912 -0.257623 0.600000 0.000000 0.300000
0.221101 0.045055 -0.788148 0.600000 0.000000 0.300000
0.063726 -0.048457 0.687752 0.000000 0.500000 0.500000
0.129944 -0.027706 0.817220 0.000000 0.500000 0.500000
0.403862 -0.048457 0.547824 0.000000 0.500000 0.500000
0.256977 -0.071912 -0.476577 0.600000 0.000000 0.300000
-0.889973 0.008079 -0.391102 0.500000 0.000000 0.500000
0.439619 -0.048457 0.569641 0.000000 0.500000 0.500000
0.012869 -0.025095 -0.301106 0.300000 0.600000 0.000000
-0.076753 -0.001701 0.094281 0.500000 0.000000 0.500000
0.087442 0.045055 -0.483617 0.600000 0.000000 0.300000
0.298700 0.034326 -0.372383 0.600000 0.000000 0.300000
-0.404474 -0.025095 0.075060 0.300000 0.600000 0.000000
0.013414 0.005654 -0.395636 0.600000 0.000000 0.300000
0.175293 -0.054325 -0.512971 0.600000 0.000000 0.300000
0.059718 -0.009132 0.669299 0.000000 0.500000 0.500000
-0.515241 -0.025095 0.167470 0.300000 0.600000 0.000000
-0.065799 -0.025095 -0.247404 0.300000 0.600000 0.000000
-0.713602 -0.025095 0.394187 0.300000 0.600000 0.000000
0.252858 -0.071912 -0.368730 0.600000 0.000000 0.300000
-0.393858 -0.025095 0.097469 0.300000 0.600000 0.000000
-0.355497 -0.001701 -0.005674 0.500000 0.000000 0.500000
0.375549 0.038466 0.778935 0.000000 0.500000 0.500000
-0.352607 -0.001701 0.008910 0.300000 0.600000 0.000000
0.319013 0.045055 -0.542225 0.600000 0.000000 0.300000
-0.107012 0.011651 0.279834 0.500000 0.000000 0.500000
0.256783 0.030391 -0.324823 0.600000 0.000000 0.300000
0.186758 0.002220 0.717479 0.000000 0.500000 0.500000
-0.506400 0.021692 -0.064083 0.500000 0.000000 0.500000
-0.597687 0.021692 -0.272002 0.500000 0.000000 0.500000
-0.579351 0.021692 -0.278640 0.500000 0.000000 0.500000
0.035411 0.031806 0.493284 0.000000 0.500000 0.500000
0.246827 0.061106 0.494058 0.000000 0.500000 0.500000
0.435179 -0.060171 -0.573190 0.600000 0.000000 0.300000
-0.423562 0.021692 -0.022755 0.500000 0.000000 0.500000
0.323307 0.016915 -0.645802 0.600000 0.000000 0.300000
-0.019104 0.021692 0.318861 0.500000 0.000000 0.500000
-0.740066 0.019948 0.388559 0.300000 0.600000 0.000000
0.129215 0.047034 0.539601 0.000000 0.500000 0.500000
-0.480508 -0.001701 0.069937 0.300000 0.600000 0.000000
0.019519 -0.045320 -0.459581 0.600000 0.000000 0.300000
0.065416 0.068510 0.637459 0.000000 0.500000 0.500000
0.125321 0.068510 0.393119 0.000000 0.500000 0.500000
0.069351 -0.071912 -0.374863 0.600000 0.000000 0.300000
0.066246 -0.001701 0.204690 0.500000 0.000000 0.500000
-0.133919 -0.001701 -0.173632 0.300000 0.600000 0.000000
-0.700587 0.021692 -0.382844 0.500000 0.000000 0.500000
-0.591940 -0.001701 -0.249694 0.500000 0.000000 0.500000
-0.176360 -0.025095 -0.186338 0.300000 0.600000 0.000000
0.203885 -0.048457 0.469920 0.000000 0.500000 0.500000
-0.697136 -0.025095 -0.385518 0.500000 0.000000 0.500000
0.005637 -0.001701 -0.193213 0.300000 0.600000 0.000000
-0.395334 -0.025095 0.130997 0.300000 0.600000 0.000000
0.348372 -0.048457 0.689051 0.000000 0.500000 0.500000
-0.059139 -0.025095 -0.197292 0.300000 0.600000 0.000000
-0.656713 0.011392 0.413404 0.300000 0.600000 0.000000
0.216017 -0.020169 -0.853668 0.600000 0.000000 0.300000
-0.741872 -0.025095 0.434316 0.300000 0.600000 0.000000
-0.343640 -0.001701 -0.138479 0.500000 0.000000 0.500000
0.197130 -0.048457 0.329078 0.000000 0.500000 0.500000
0.291631 0.065221 0.339269 0.000000 0.500000 0.500000
0.172460 0.045055 -0.813584 0.600000 0.000000 0.300000
0.098363 0.045055 -0.472438 0.600000 0.000000 0.300000
0.074104 -0.071912 -0.492365 0.600000 0.000000 0.300000
-0.417936 -0.001701 -0.102907 0.500000 0.000000 0.500000
0.259107 -0.071912 -0.833985 0.600000 0.000000 0.300000
-0.056763 0.021692 0.302064 0.500000 0.000000 0.500000
0.142777 -0.045682 -0.845538 0.600000 0.000000 0.300000
0.062661 -0.071912 -0.661153 0.600000 0.000000 0.300000
0.163343 -0.071912 -0.457669 0.600000 0.000000 0.300000
0.434371 0.058431 0.513096 0.000000 0.500000 0.500000
-0.555658 -0.025095 0.227004 0.300000 0.600000 0.000000
0.231265 0.000650 0.723030 0.000000 0.500000 0.500000
-0.676945 -0.014902 -0.362764 0.500000 0.000000 0.500000
-0.115752 -0.018592 -0.041872 0.300000 0.600000 0.000000
0.150440 0.068510 0.448741 0.000000 0.500000 0.500000
0.270007 0.068510 0.399293 0.000000 0.500000 0.500000
0.290503 0.045055 -0.737349 0.600000 0.000000 0.300000
-0.627210 -0.001701 0.299261 0.300000 0.600000 0.000000
-0.146657 -0.025095 -0.245094 0.300000 0.600000 0.000000
-0.017565 -0.025095 -0.179277 0.300000 0.600000 0.000000
-0.505624 -0.001701 -0.188318 0.500000 0.000000 0.500000
-0.634475 -0.002936 0.394688 0.300000 0.600000 0.000000
0.221128 -0.041407 -0.284369 0.600000 0.000000 0.300000
0.080072 -0.001701 -0.237629 0.300000 0.600000 0.000000
0.377991 0.045055 -0.531084 0.600000 0.000000 0.300000
0.030507 -0.001701 -0.335920 0.300000 0.600000 0.000000
0.036729 -0.001701 0.198072 0.500000 0.000000 0.500000
0.061064 0.043181 -0.339019 0.600000 0.000000 0.300000
0.209636 0.057156 0.249843 0.000000 0.500000 0.500000
0.085012 -0.032579 -0.310564 0.600000 0.000000 0.300000
0.083348 -0.048457 0.497043 0.000000 0.500000 0.500000
0.381803 -0.071912 -0.676502 0.600000 0.000000 0.300000
0.236392 -0.004699 -0.509656 0.600000 0.000000 0.300000
-0.630879 -0.016464 0.290922 0.300000 0.600000 0.000000
0.057537 -0.042371 0.340304 0.000000 0.500000 0.500000
-0.720730 -0.025095 -0.438502 0.500000 0.000000 0.500000
0.024115 0.021692 0.302023 0.500000 0.000000 0.500000
-0.624049 -0.025095 0.368463 0.300000 0.600000 0.000000
0.411689 -0.007676 0.474744 0.000000 0.500000 0.500000
-0.419330 -0.001701 0.037910 0.300000 0.600000 0.000000
0.449398 0.011206 0.654629 0.000000 0.500000 0.500000
0.323917 -0.071912 -0.756388 0.600000 0.000000 0.300000
-0.096733 0.021692 0.066286 0.500000 0.000000 0.500000
-0.506366 0.021692 -0.218692 0.500000 0.000000 0.500000
0.452949 0.025169 0.615664 0.000000 0.500000 0.500000
0.115156 -0.040961 0.566371 0.000000 0.500000 0.500000
-0.202748 -0.002632 -0.213262 0.300000 0.600000 0.000000
-0.714173 -0.023812 0.445723 0.300000 0.600000 0.000000
-0.327193 -0.001701 -0.121789 0.500000 0.000000 0.500000
0.173243 0.045055 -0.408529 0.600000 0.000000 0.300000
0.061932 0.033425 0.685326 0.000000 0.500000 0.500000
0.024551 -0.037699 -0.502183 0.600000 0.000000 0.300000
-0.074775 0.021692 0.133978 0.500000 0.000000 0.500000
0.169435 0.035975 0.832590 0.000000 0.500000 0.500000
0.309655 -0.071912 -0.699444 0.600000 0.000000 0.300000
0.279191 -0.001595 -0.841181 0.600000 0.000000 0.300000
0.319034 0.000396 -0.662939 0.600000 0.000000 0.300000
0.191277 0.068510 0.829329 0.000000 0.500000 0.500000
0.174783 -0.071912 -0.764714 0.600000 0.000000 0.300000
0.013749 -0.001701 -0.295385 0.300000 0.600000 0.000000
0.306442 0.068510 0.425913 0.000000 0.500000 0.500000
0.257250 0.068510 0.488928 0.000000 0.500000 0.500000
0.266417 -0.071912 -0.802225 0.600000 0.000000 0.300000
0.217063 -0.024873 0.491345 0.000000 0.500000 0.500000
-0.347905 -0.025095 0.043877 0.300000 0.600000 0.000000
0.375146 0.045055 -0.558360 0.600000 0.000000 0.300000
0.100219 -0.071912 -0.790962 0.600000 0.000000 0.300000
-0.178956 0.014461 0.221662 0.500000 0.000000 0.500000
0.291212 0.043508 0.699880 0.000000 0.500000 0.500000
-0.382326 -0.001701 -0.017633 0.300000 0.600000 0.000000
0.367930 0.015621 -0.790089 0.600000 0.000000 0.300000
0.109809 0.004778 -0.679984 0.600000 0.000000 0.300000
0.248720 -0.071912 -0.345434 0.600000 0.000000 0.300000
-0.525136 0.021692 -0.077269 0.500000 0.000000 0.500000
-0.167419 -0.001701 -0.104182 0.300000 0.600000 0.000000
-0.498801 -0.001701 -0.062354 0.500000 0.000000 0.500000
0.123723 -0.009297 0.550059 0.000000 0.500000 0.500000
-0.893225 0.004480 0.394724 0.300000 0.600000 0.000000
0.083125 -0.048457 0.782129 0.000000 0.500000 0.500000
0.124313 -0.071912 -0.321378 0.600000 0.000000 0.300000
-0.430920 -0.015154 0.223375 0.300000 0.600000 0.000000
0.327136 0.058247 0.377992 0.000000 0.500000 0.500000
0.257189 -0.035806 -0.325285 0.600000 0.000000 0.300000
-0.303392 0.021692 0.097861 0.500000 0.000000 0.500000
-0.176759 -0.001701 -0.159415 0.300000 0.600000 0.000000
0.429075 -0.048457 0.707173 0.000000 0.500000 0.500000
-0.256289 0.021692 -0.064745 0.500000 0.000000 0.500000
-0.649104 -0.025095 0.364283 0.300000 0.600000 0.000000
0.452708 -0.029906 0.618310 0.000000 0.500000 0.500000
0.155590 -0.025340 -0.722932 0.600000 0.000000 0.300000
-0.885630 -0.024271 0.422417 0.300000 0.600000 0.000000
0.344672 0.068510 0.558571 0.000000 0.500000 0.500000
0.108526 -0.062438 -0.827978 0.600000 0.000000 0.300000
-0.031722 -0.025095 -0.272805 0.300000 0.600000 0.000000
-0.652733 -0.001701 -0.354134 0.500000 0.000000 0.500000
0.042011 -0.034388 -0.649999 0.600000 0.000000 0.300000
0.295893 0.068510 0.385413 0.000000 0.500000 0.500000
0.059257 -0.025095 -0.230768 0.300000 0.600000 0.000000
0.433555 -0.030663 0.700298 0.000000 0.500000 0.500000
0.324029 -0.058658 -0.401122 0.600000 0.000000 0.300000
0.317464 0.007496 -0.393673 0.600000 0.000000 0.300000
0.330071 -0.048457 0.707810 0.000000 0.500000 0.500000
0.322319 0.009356 0.665373 0.000000 0.500000 0.500000
-0.579091 0.021692 -0.169710 0.500000 0.000000 0.500000
0.013185 -0.016885 -0.405960 0.600000 0.000000 0.300000
0.080147 0.068510 0.663835 0.000000 0.500000 0.500000
0.359574 0.060736 0.413370 0.000000 0.500000 0.500000
-0.562166 0.001386 -0.328861 0.500000 0.000000 0.500000
-0.700951 -0.017815 -0.431304 0.500000 0.000000 0.500000
0.199573 0.045055 -0.280521 0.600000 0.000000 0.300000
0.016681 -0.001701 0.158856 0.500000 0.000000 0.500000
0.089423 -0.048457 0.395863 0.000000 0.500000 0.500000
-0.079601 -0.004135 -0.072297 0.300000 0.600000 0.000000
0.124951 0.068510 0.719753 0.000000 0.500000 0.500000
0.095815 -0.031062 -0.615574 0.600000 0.000000 0.300000
0.041250 0.039827 0.535569 0.000000 0.500000 0.500000
-0.873056 -0.025095 0.421079 0.300000 0.600000 0.000000
0.325815 -0.063668 -0.623210 0.600000 0.000000 0.300000
-0.342295 0.005985 0.089591 0.500000 0.000000 0.500000
0.200158 0.036006 0.494178 0.000000 0.500000 0.500000
0.040520 -0.015517 -0.173392 0.300000 0.600000 0.000000
0.187406 -0.048457 0.831283 0.000000 0.500000 0.500000
-0.900884 -0.008314 0.410211 0.300000 0.600000 0.000000
0.110558 -0.048457 0.347574 0.000000 0.500000 0.500000
-0.107993 -0.001701 -0.063035 0.300000 0.600000 0.000000
0.180853 0.068510 0.751089 0.000000 0.500000 0.500000
-0.297348 0.000709 0.042959 0.500000 0.500000 0.000000
-0.113930 0.004240 0.274240 0.500000 0.000000 0.500000
0.044556 -0.001701 0.260998 0.500000 0.000000 0.500000
-0.096898 -0.025095 -0.185513 0.300000 0.600000 0.000000
0.178776 0.002096 -0.511962 0.600000 0.000000 0.300000
0.160563 0.034393 0.212886 0.000000 0.500000 0.500000
0.259334 -0.047651 0.836207 0.000000 0.500000 0.500000
-0.131487 -0.001701 -0.192890 0.300000 0.600000 0.000000
0.114803 -0.046998 -0.831433 0.600000 0.000000 0.300000
0.016386 0.021692 0.330621 0.500000 0.000000 0.500000
0.353720 -0.027556 -0.434810 0.600000 0.000000 0.300000
-0.682809 -0.025095 -0.387058 0.500000 0.000000 0.500000
-0.533482 -0.025095 0.242444 0.300000 0.600000 0.000000
0.239800 -0.048457 0.753707 0.000000 0.500000 0.500000
0.435571 -0.048457 0.676639 0.000000 0.500000 0.500000
-0.327661 0.021692 -0.134041 0.500000 0.000000 0.500000
0.320487 -0.041082 -0.828052 0.600000 0.000000 0.300000
0.020650 -0.032183 -0.469160 0.600000 0.000000 0.300000
0.243275 0.045055 -0.843067 0.600000 0.000000 0.300000
0.002983 -0.001701 -0.369261 0.300000 0.600000 0.000000
0.127186 0.045055 -0.521794 0.600000 0.000000 0.300000
-0.312063 -0.025095 0.075688 0.300000 0.600000 0.000000
0.092665 0.068510 0.748938 0.000000 0.500000 0.500000
0.288326 0.038563 -0.706861 0.600000 0.000000 0.300000
-0.527730 -0.001701 0.089011 0.300000 0.600000 0.000000
0.442007 0.068510 0.570109 0.000000 0.500000 0.500000
-0.511547 -0.001701 0.089885 0.300000 0.600000 0.000000
0.218895 0.045055 -0.295837 0.600000 0.000000 0.300000
-0.558325 -0.001701 -0.296631 0.500000 0.000000 0.500000
0.136827 0.066607 0.682498 0.000000 0.500000 0.500000
-0.487677 -0.001701 -0.121680 0.500000 0.000000 0.500000
0.333737 -0.040751 0.643632 0.000000 0.500000 0.500000
0.115153 0.045055 -0.397315 0.600000 0.000000 0.300000
-0.399670 -0.011215 -0.047531 0.300000 0.600000 0.000000
0.114250 0.045055 -0.354013 0.600000 0.000000 0.300000
0.063814 0.045055 -0.753072 0.600000 0.000000 0.300000
0.189761 -0.048457 0.369991 0.000000 0.500000 0.500000
0.371948 0.068510 0.740170 0.000000 0.500000 0.500000
0.086798 -0.035241 -0.816016 0.600000 0.000000 0.300000
-0.415841 0.021692 -0.125824 0.500000 0.000000 0.500000
-0.551524 0.021692 -0.150487 0.500000 0.000000 0.500000
0.011714 -0.001701 -0.230403 0.300000 0.600000 0.000000
0.430921 0.060224 0.502015 0.000000 0.500000 0.500000
0.189296 -0.048457 0.454534 0.000000 0.500000 0.500000
0.137548 0.005234 -0.533658 0.600000 0.000000 0.300000
-0.465861 0.021692 -0.123309 0.500000 0.000000 0.500000
-0.361867 -0.025095 0.102103 0.300000 0.600000 0.000000
-0.314270 -0.001701 -0.095253 0.300000 0.600000 0.000000
-0.613334 -0.001701 0.341698 0.300000 0.600000 0.000000
-0.378365 0.021692 -0.145941 0.500000 0.000000 0.500000
0.119443 -0.071912 -0.288204 0.600000 0.000000 0.300000
0.060312 -0.071880 -0.801434 0.600000 0.000000 0.300000
0.273339 0.030718 0.831847 0.000000 0.500000 0.500000
0.081261 0.068510 0.553217 0.000000 0.500000 0.500000
-0.282223 -0.001701 -0.049734 0.500000 0.000000 0.500000
-0.569353 -0.025095 0.116192 0.300000 0.600000 0.000000
0.098338 -0.061822 -0.822369 0.600000 0.000000 0.300000
0.338929 0.021878 0.602771 0.000000 0.500000 0.500000
0.208360 0.032398 -0.269882 0.600000 0.000000 0.300000
0.420530 0.026489 -0.522658 0.600000 0.000000 0.300000
0.407484 0.005314 0.749939 0.000000 0.500000 0.500000
-0.551852 -0.025095 0.253705 0.300000 0.600000 0.000000
-0.310652 0.010768 -0.125495 0.500000 0.000000 0.500000
-0.472027 0.021692 -0.133151 0.500000 0.000000 0.500000
0.171380 -0.071912 -0.327479 0.600000 0.000000 0.300000
-0.076863 0.015613 0.063540 0.500000 0.000000 0.500000
0.362322 0.068510 0.462994 0.000000 0.500000 0.500000
0.342074 -0.071912 -0.738611 0.600000 0.000000 0.300000
0.162135 -0.048457 0.708855 0.000000 0.500000 0.500000
0.190530 -0.060990 -0.249652 0.600000 0.000000 0.300000
-0.408570 0.008131 0.036003 0.500000 0.000000 0.500000
-0.565288 -0.001701 0.305148 0.300000 0.600000 0.000000
-0.741541 0.021692 -0.436375 0.500000 0.000000 0.500000
-0.282120 0.021692 0.058182 0.500000 0.000000 0.500000
-0.401599 0.021692 -0.034374 0.500000 0.000000 0.500000
-0.282141 -0.025095 -0.009960 0.500000 0.500000 0.000000
-0.545504 -0.001701 0.192893 0.300000 0.600000 0.000000
0.293249 0.048086 0.825649 0.000000 0.500000 0.500000
0.089175 0.045055 -0.787825 0.600000 0.000000 0.300000
0.020297 -0.010006 -0.466172 0.600000 0.000000 0.300000
-0.506954 -0.025095 0.079620 0.300000 0.600000 0.000000
0.418592 0.045055 -0.597009 0.600000 0.000000 0.300000
0.034792 0.034093 -0.588888 0.600000 0.000000 0.300000
0.356066 -0.048457 0.483295 0.000000 0.500000 0.500000
0.101361 0.045055 -0.452504 0.600000 0.000000 0.300000
0.307202 0.045055 -0.396252 0.600000 0.000000 0.300000
0.117583 0.013002 0.653353 0.000000 0.500000 0.500000
-0.424033 -0.025095 0.015137 0.300000 0.600000 0.000000
-0.015651 0.021692 0.184934 0.500000 0.000000 0.500000
0.024321 -0.036605 0.412978 0.000000 0.500000 0.500000
0.039191 -0.071912 -0.398632 0.600000 0.000000 0.300000
0.061589 -0.018800 -0.338396 0.600000 0.000000 0.300000
-0.090333 0.021692 0.268165 0.500000 0.000000 0.500000
0.367405 -0.048457 0.750262 0.000000 0.500000 0.500000
-0.523896 -0.025095 0.149018 0.300000 0.600000 0.000000
0.249033 -0.048457 0.310229 0.000000 0.500000 0.500000
0.246754 0.003690 -0.850584 0.600000 0.000000 0.300000
0.227605 -0.029995 -0.291718 0.600000 0.000000 0.300000
-0.008691 -0.001701 0.130051 0.500000 0.000000 0.500000
-0.138070 -0.001701 0.227490 0.500000 0.000000 0.500000
0.399351 -0.048457 0.526258 0.000000 0.500000 0.500000
0.091228 -0.071912 -0.359073 0.600000 0.000000 0.300000
-0.901175 0.010752 -0.409052 0.500000 0.000000 0.500000
0.004787 0.021692 0.314075 0.500000 0.000000 0.500000
0.402036 -0.048457 0.738701 0.000000 0.500000 0.500000
0.042766 -0.047324 0.546542 0.000000 0.500000 0.500000
0.421660 -0.052592 -0.714397 0.600000 0.000000 0.300000
-0.493723 -0.025095 0.163464 0.300000 0.600000 0.000000
-0.400713 -0.001701 0.031443 0.300000 0.600000 0.000000
-0.361006 -0.001701 0.150385 0.300000 0.600000 0.000000
-0.671887 0.000017 -0.332646 0.500000 0.000000 0.500000
0.235337 0.068510 0.807449 0.000000 0.500000 0.500000
-0.031090 0.000390 0.341222 0.500000 0.000000 0.500000
-0.916303 0.021109 -0.382905 0.500000 0.000000 0.500000
-0.584094 -0.025095 0.137165 0.300000 0.600000 0.000000
0.125156 0.053716 0.668486 0.000000 0.500000 0.500000
0.140034 0.068510 0.373191 0.000000 0.500000 0.500000
0.062297 -0.048457 0.476824 0.000000 0.500000 0.500000
0.333555 0.068510 0.709280 0.000000 0.500000 0.500000
-0.363374 0.021692 0.064470 0.500000 0.000000 0.500000
-0.741357 0.002107 -0.448075 0.500000 0.000000 0.500000
-0.099767 -0.001701 0.234406 0.500000 0.000000 0.500000
0.030677 0.036551 -0.554045 0.600000 0.000000 0.300000
-0.154370 0.021692 0.230316 0.500000 0.000000 0.500000
-0.217227 0.021692 0.060770 0.500000 0.000000 0.500000
0.049243 -0.061135 -0.711233 0.600000 0.000000 0.300000
0.276696 -0.048457 0.342478 0.000000 0.500000 0.500000
0.043200 0.037452 0.549687 0.000000 0.500000 0.500000
0.076163 0.068510 0.492124 0.000000 0.500000 0.500000
-0.516380 -0.001701 -0.241559 0.500000 0.000000 0.500000
0.082479 -0.071912 -0.605071 0.600000 0.000000 0.300000
0.096445 0.037479 -0.640781 0.600000 0.000000 0.300000
0.330717 -0.015991 0.813984 0.000000 0.500000 0.500000
0.061777 0.045055 -0.462872 0.600000 0.000000 0.300000
-0.032855 -0.001701 0.207985 0.500000 0.000000 0.500000
-0.327734 -0.025095 -0.076544 0.300000 0.600000 0.000000
0.095895 -0.071912 -0.555389 0.600000 0.000000 0.300000
0.413054 0.045055 -0.713516 0.600000 0.000000 0.300000
-0.795954 0.021692 0.416675 0.300000 0.600000 0.000000
0.295180 -0.029008 -0.836546 0.600000 0.000000 0.300000
-0.047218 -0.001701 -0.191684 0.300000 0.600000 0.000000
0.248440 0.068510 0.326850 0.000000 0.500000 0.500000
0.117570 0.068510 0.484042 0.000000 0.500000 0.500000
0.274384 -0.002473 0.504342 0.000000 0.500000 0.500000
-0.299929 -0.025095 0.018556 0.500000 0.500000 0.000000
0.407546 0.068510 0.547261 0.000000 0.500000 0.500000
0.127403 0.045055 -0.773084 0.600000 0.000000 0.300000
-0.080949 -0.001701 -0.086435 0.300000 0.600000 0.000000
0.027057 -0.025095 -0.180946 0.300000 0.600000 0.000000
-0.451685 -0.025095 0.168056 0.300000 0.600000 0.000000
0.303036 -0.021737 0.523548 0.000000 0.500000 0.500000
0.325665 -0.018804 0.659002 0.000000 0.500000 0.500000
0.324073 -0.049856 -0.601952 0.600000 0.000000 0.300000
0.049316 0.045055 -0.479263 0.600000 0.000000 0.300000
-0.445879 -0.001701 0.137803 0.300000 0.600000 0.000000
0.317724 0.068510 0.774438 0.000000 0.500000 0.500000
0.049691 -0.024832 0.350007 0.000000 0.500000 0.500000
0.450470 0.046449 0.564810 0.000000 0.500000 0.500000
-0.300848 -0.025095 -0.092901 0.300000 0.600000 0.000000
0.363915 0.012090 -0.446697 0.600000 0.000000 0.300000
-0.761493 -0.025095 0.444849 0.300000 0.600000 0.000000
0.123579 0.068510 0.777687 0.000000 0.500000 0.500000
-0.602407 0.021692 -0.226731 0.500000 0.000000 0.500000
-0.369559 -0.011360 -0.072872 0.300000 0.600000 0.000000
0.186625 0.045055 -0.465671 0.600000 0.000000 0.300000
0.140314 -0.048457 0.322935 0.000000 0.500000 0.500000
0.036039 -0.001701 0.223000 0.500000 0.000000 0.500000
-0.217373 -0.025095 0.035977 0.300000 0.600000 0.000000
0.359411 0.045055 -0.488040 0.600000 0.000000 0.300000
-0.004176 0.014105 0.122312 0.500000 0.000000 0.500000
-0.033430 -0.022929 -0.355761 0.300000 0.600000 0.000000
0.109966 0.045055 -0.296735 0.600000 0.000000 0.300000
-0.055873 0.010781 0.080512 0.500000 0.000000 0.500000
0.064494 0.021692 0.197715 0.500000 0.000000 0.500000
0.334250 0.068510 0.737874 0.000000 0.500000 0.500000
0.302015 0.031882 0.350594 0.000000 0.500000 0.500000
0.093966 0.045055 -0.304447 0.600000 0.000000 0.300000
-0.417772 0.007344 0.028563 0.500000 0.000000 0.500000
0.107558 -0.009565 0.621150 0.000000 0.500000 0.500000
0.044555 0.030762 -0.671541 0.600000 0.000000 0.300000
-0.164054 -0.001701 -0.218276 0.300000 0.600000 0.000000
0.441741 -0.036901 0.536771 0.000000 0.500000 0.500000
0.281914 0.002477 0.328671 0.000000 0.500000 0.500000
-0.175242 -0.001701 0.029914 0.500000 0.000000 0.500000
0.027706 -0.025616 -0.528894 0.600000 0.000000 0.300000
-0.622886 -0.001701 -0.335867 0.500000 0.000000 0.500000
0.432250 0.032451 -0.695161 0.600000 0.000000 0.300000
-0.057877 -0.001701 -0.244171 0.300000 0.600000 0.000000
0.026253 0.021692 0.376127 0.500000 0.000000 0.500000
0.326252 -0.071912 -0.666711 0.600000 0.000000 0.300000
0.293277 -0.038874 0.341064 0.000000 0.500000 0.500000
0.420464 0.067874 0.725225 0.000000 0.500000 0.500000
0.321017 0.009187 0.545134 0.000000 0.500000 0.500000
0.357048 0.068510 0.438093 0.000000 0.500000 0.500000
-0.361916 0.021692 -0.121370 0.500000 0.000000 0.500000
0.138106 0.068510 0.755891 0.000000 0.500000 0.500000
0.202676 0.045055 -0.313652 0.600000 0.000000 0.300000
0.430280 -0.048457 0.612333 0.000000 0.500000 0.500000
0.138641 -0.014018 -0.246842 0.600000 0.000000 0.300000
-0.511523 -0.001701 -0.258616 0.500000 0.000000 0.500000
-0.159654 -0.025095 -0.007567 0.300000 0.600000 0.000000
0.036096 -0.026100 0.498243 0.000000 0.500000 0.500000
0.026966 0.033469 -0.522633 0.600000 0.000000 0.300000
-0.354090 -0.025095 0.060689 0.300000 0.600000 0.000000
0.432218 -0.000864 0.506181 0.000000 0.500000 0.500000
0.211033 -0.008124 0.836381 0.000000 0.500000 0.500000
0.239257 0.041669 0.282148 0.000000 0.500000 0.500000
0.156683 -0.048457 0.410024 0.000000 0.500000 0.500000
0.063365 -0.001701 0.260683 0.500000 0.000000 0.500000
0.165720 -0.071912 -0.428288 0.600000 0.000000 0.300000
0.102271 0.008468 0.284979 0.000000 0.500000 0.500000
-0.722089 0.021692 0.404991 0.300000 0.600000 0.000000
-0.511554 -0.025095 0.267572 0.300000 0.600000 0.000000
0.117217 -0.025095 -0.262082 0.300000 0.600000 0.000000
-0.493304 0.021692 -0.200984 0.500000 0.000000 0.500000
0.039401 -0.001701 0.236686 0.500000 0.000000 0.500000
0.044372 -0.048457 0.482690 0.000000 0.500000 0.500000
0.099847 -0.048457 0.446914 0.000000 0.500000 0.500000
-0.094462 -0.001701 -0.187284 0.300000 0.600000 0.000000
-0.218801 -0.001701 0.145783 0.500000 0.000000 0.500000
-0.208194 -0.001701 -0.091187 0.300000 0.600000 0.000000
-0.348921 0.021474 -0.020811 0.500000 0.500000 0.000000
0.250163 0.058110 0.294043 0.000000 0.500000 0.500000
-0.025442 0.021692 0.191455 0.500000 0.000000 0.500000
0.435048 -0.000237 -0.678993 0.600000 0.000000 0.300000
0.115684 0.045055 -0.276390 0.600000 0.000000 0.300000
0.146291 -0.035722 0.825805 0.000000 0.500000 0.500000
-0.447171 0.021692 -0.068346 0.500000 0.000000 0.500000
-0.126420 -0.001701 -0.073284 0.300000 0.600000 0.000000
0.422889 0.020251 0.720607 0.000000 0.500000 0.500000
0.031462 -0.013451 0.464690 0.000000 0.500000 0.500000
-0.632930 -0.025095 0.374851 0.300000 0.600000 0.000000
0.413104 0.068510 0.519398 0.000000 0.500000 0.500000
-0.475728 0.021692 -0.100152 0.500000 0.000000 0.500000
0.114232 0.020714 0.218053 0.500000 0.000000 0.500000
0.278986 0.030758 -0.841240 0.600000 0.000000 0.300000
0.405775 0.066105 0.467644 0.000000 0.500000 0.500000
0.138064 -0.048457 0.725851 0.000000 0.500000 0.500000
-0.859628 -0.025095 -0.428263 0.500000 0.000000 0.500000
0.277010 -0.048457 0.471186 0.000000 0.500000 0.500000
-0.115508 -0.001701 0.261051 0.500000 0.000000 0.500000
0.338697 0.054263 0.605313 0.000000 0.500000 0.500000
0.117912 -0.000947 -0.690111 0.600000 0.000000 0.300000
-0.569559 -0.025095 0.325074 0.300000 0.600000 0.000000
-0.109883 -0.001701 0.227476 0.500000 0.000000 0.500000
0.180687 0.068510 0.247734 0.000000 0.500000 0.500000
-0.552401 -0.001701 0.258693 0.300000 0.600000 0.000000
0.243054 0.026398 0.839300 0.000000 0.500000 0.500000
0.452661 -0.006605 0.618821 0.000000 0.500000 0.500000
-0.217385 -0.025095 -0.065921 0.300000 0.600000 0.000000
0.299244 -0.019963 0.823783 0.000000 0.500000 0.500000
0.085187 -0.048457 0.744103 0.000000 0.500000 0.500000
0.033406 0.032051 0.478768 0.000000 0.500000 0.500000
-0.211378 -0.011294 0.038607 0.300000 0.600000 0.000000
0.359308 -0.071912 -0.620539 0.600000 0.000000 0.300000
0.158539 -0.012537 -0.724555 0.600000 0.000000 0.300000
0.320258 -0.048457 0.437867 0.000000 0.500000 0.500000
0.408641 -0.048457 0.641333 0.000000 0.500000 0.500000
0.246859 0.042494 0.839646 0.000000 0.500000 0.500000
-0.599490 -0.001701 0.329950 0.300000 0.600000 0.000000
-0.489395 -0.025095 0.065578 0.300000 0.600000 0.000000
-0.484810 0.021692 -0.037043 0.500000 0.000000 0.500000
-0.047358 -0.001701 0.194735 0.500000 0.000000 0.500000
-0.505966 -0.025095 0.187660 0.300000 0.600000 0.000000
-0.263461 0.021692 0.069524 0.500000 0.000000 0.500000
0.075218 0.068510 0.385268 0.000000 0.500000 0.500000
-0.797489 -0.025095 -0.401197 0.500000 0.000000 0.500000
0.201447 -0.048457 0.316303 0.000000 0.500000 0.500000
0.074939 -0.043393 0.318782 0.000000 0.500000 0.500000
0.266636 0.068510 0.754179 0.000000 0.500000 0.500000
-0.650023 -0.025052 0.407774 0.300000 0.600000 0.000000
0.187663 -0.048457 0.402601 0.000000 0.500000 0.500000
0.236446 -0.071912 -0.792917 0.600000 0.000000 0.300000
0.295267 -0.022612 -0.701306 0.600000 0.000000 0.300000
-0.603825 -0.025095 0.160873 0.300000 0.600000 0.000000
0.232415 0.068510 0.383939 0.000000 0.500000 0.500000
0.364158 0.045055 -0.579975 0.600000 0.000000 0.300000
0.367550 0.045055 -0.458916 0.600000 0.000000 0.300000
0.025333 -0.019902 -0.508805 0.600000 0.000000 0.300000
0.109655 -0.064559 -0.281282 0.600000 0.000000 0.300000
0.264746 -0.048457 0.349869 0.000000 0.500000 0.500000
0.234027 0.068510 0.282208 0.000000 0.500000 0.500000
0.206532 0.067752 0.492194 0.000000 0.500000 0.500000
0.286448 -0.071912 -0.436736 0.600000 0.000000 0.300000
0.144199 -0.000721 0.824707 0.000000 0.500000 0.500000
-0.480042 0.010764 -0.021787 0.500000 0.000000 0.500000
-0.224521 -0.001701 -0.009806 0.500000 0.000000 0.500000
0.386852 0.056728 0.444925 0.000000 0.500000 0.500000
-0.219202 0.021692 -0.011454 0.500000 0.000000 0.500000
0.074559 -0.027563 -0.809277 0.600000 0.000000 0.300000
0.384500 -0.071912 -0.472721 0.600000 0.000000 0.300000
-0.572014 -0.017467 0.097515 0.300000 0.600000 0.000000
0.313540 -0.048457 0.418240 0.000000 0.500000 0.500000
-0.168137 -0.001701 -0.129969 0.300000 0.600000 0.000000
0.101812 -0.025095 -0.238646 0.300000 0.600000 0.000000
0.435048 0.045055 -0.584876 0.600000 0.000000 0.300000
-0.211655 -0.025095 -0.035406 0.300000 0.600000 0.000000
0.211167 0.002886 -0.737705 0.600000 0.000000 0.300000
-0.761929 0.021692 -0.426086 0.500000 0.000000 0.500000
0.325707 0.057419 0.550766 0.000000 0.500000 0.500000
0.412807 -0.018297 -0.730479 0.600000 0.000000 0.300000
0.122672 0.016344 -0.835765 0.600000 0.000000 0.300000
0.359825 -0.071912 -0.480293 0.600000 0.000000 0.300000
-0.182830 -0.025095 0.009608 0.300000 0.600000 0.000000
-0.417230 0.021692 -0.161203 0.500000 0.000000 0.500000
0.059016 0.029405 0.664216 0.000000 0.500000 0.500000
0.238951 -0.071912 -0.455840 0.600000 0.000000 0.300000
0.341154 0.068510 0.692729 0.000000 0.500000 0.500000
-0.605597 -0.001701 0.361001 0.300000 0.600000 0.000000
0.343822 -0.030351 -0.423580 0.600000 0.000000 0.300000
0.093922 0.021692 0.259915 0.500000 0.000000 0.500000
0.227636 0.045055 -0.456899 0.600000 0.000000 0.300000
-0.543711 -0.001701 -0.082278 0.500000 0.000000 0.500000
-0.116354 0.021692 0.200732 0.500000 0.000000 0.500000
-0.458712 -0.025095 0.212472 0.300000 0.600000 0.000000
-0.374489 0.021692 0.048866 0.500000 0.000000 0.500000
-0.724180 -0.007127 0.450729 0.300000 0.600000 0.000000
-0.122770 -0.001701 -0.239446 0.300000 0.600000 0.000000
-0.463096 -0.008141 0.250454 0.300000 0.600000 0.000000
0.294828 0.014069 -0.543975 0.600000 0.000000 0.300000
-0.753950 -0.011900 0.396202 0.300000 0.600000 0.000000
0.277113 -0.048457 0.781437 0.000000 0.500000 0.500000
-0.096239 0.021692 0.149152 0.500000 0.000000 0.500000
