ply
format ascii 1.0
element vertex 1259
property float x
property float y
property float z
property uchar red
property uchar green
property uchar blue
end_header
0.015929 -0.001701 -0.285741 76 153 0
-0.107528 -0.013663 -0.048794 76 153 0
0.118451 0.045055 -0.406530 153 0 76
-0.207258 0.021692 -0.021724 127 0 127
0.197874 0.005098 0.835182 0 127 127
0.438898 0.042392 -0.644311 153 0 76
0.144768 0.061375 0.232420 0 127 127
-0.536557 -0.025095 0.297294 76 153 0
0.148159 0.006922 0.228227 0 127 127
0.179646 -0.071912 -0.470607 153 0 76
0.253847 0.017220 -0.848527 153 0 76
-0.531344 -0.025095 0.178922 76 153 0
0.052245 -0.018884 -0.736639 153 0 76
-0.113860 -0.001701 -0.186268 76 153 0
-0.593050 0.021692 -0.268148 127 0 127
0.373310 -0.071912 -0.579575 153 0 76
-0.382445 -0.025095 -0.042039 76 153 0
-0.220221 0.021692 0.027982 127 0 127
-0.457781 -0.001701 0.061667 76 153 0
-0.626745 0.010908 -0.381077 127 0 127
0.064159 0.062786 0.332114 0 127 127
0.264203 -0.024158 -0.726083 153 0 76
-0.543688 -0.025095 0.114747 76 153 0
-0.139110 -0.001701 -0.197608 76 153 0
-0.005531 0.005626 0.121218 127 0 127
0.152901 -0.071912 -0.312258 153 0 76
0.070473 0.021692 0.196831 127 0 127
0.067239 -0.056929 -0.805247 153 0 76
-0.041705 -0.001701 -0.330262 76 153 0
0.096504 0.063540 0.799658 0 127 127
0.153377 0.068510 0.473678 0 127 127
0.309209 -0.012876 -0.680785 153 0 76
0.381808 0.068510 0.694582 0 127 127
0.450200 -0.005186 0.645822 0 127 127
-0.562142 -0.001701 0.126544 76 153 0
0.109208 0.033431 -0.281814 153 0 76
0.040418 0.038258 0.529543 0 127 127
-0.268349 -0.001701 0.043690 76 153 0
-0.037509 0.021692 0.231706 127 0 127
0.089874 0.030950 -0.304787 153 0 76
-0.358696 -0.025095 0.106817 76 153 0
-0.220581 -0.025095 -0.091613 76 153 0
-0.439933 -0.024630 -0.013646 76 153 0
-0.884355 -0.009207 0.397295 76 153 0
-0.461339 0.021692 -0.231530 127 0 127
0.211504 -0.071912 -0.465399 153 0 76
0.333789 0.068510 0.691939 0 127 127
-0.818360 -0.025095 -0.411402 127 0 127
-0.055816 0.021692 0.279659 127 0 127
0.069959 0.045055 -0.600729 153 0 76
0.373986 -0.071912 -0.678519 153 0 76
-0.708155 0.021692 0.429475 76 153 0
-0.083780 -0.008999 -0.068780 76 153 0
-0.404788 -0.001701 0.130846 76 153 0
-0.189372 0.021692 0.052619 127 0 127
0.043067 0.017034 0.548727 0 127 127
0.001805 -0.001701 -0.237623 76 153 0
0.163619 0.012134 0.209106 0 127 127
0.271585 -0.014162 0.712242 0 127 127
-0.494173 -0.001701 -0.117601 127 0 127
0.329770 -0.071912 -0.667768 153 0 76
0.319481 -0.048457 0.467779 0 127 127
-0.641954 -0.001701 0.355264 76 153 0
-0.690226 -0.025095 -0.384154 127 0 127
-0.014534 -0.001701 -0.217941 76 153 0
-0.347443 -0.001701 0.064797 127 0 127
0.245351 -0.021412 -0.510651 153 0 76
0.278676 0.033580 -0.841330 153 0 76
0.429282 -0.003468 0.708434 0 127 127
-0.012808 -0.001701 -0.329267 76 153 0
-0.538424 -0.001701 0.306998 76 153 0
-0.329897 -0.025095 0.092854 76 153 0
0.021070 0.061319 0.389444 0 127 127
0.155781 0.068510 0.816597 0 127 127
0.182774 -0.071912 -0.409407 153 0 76
-0.554933 0.021692 -0.112451 127 0 127
0.273874 0.014601 0.504074 0 127 127
0.118523 -0.014640 0.264879 0 127 127
0.161468 -0.071912 -0.421855 153 0 76
0.216113 0.068510 0.283941 0 127 127
0.288665 0.045055 -0.529967 153 0 76
0.239311 0.045055 -0.422148 153 0 76
0.294264 -0.071912 -0.530891 153 0 76
-0.116764 -0.025095 -0.168753 76 153 0
-0.005748 -0.025095 -0.149818 76 153 0
-0.039919 -0.025095 -0.121331 76 153 0
-0.606961 -0.025095 0.266618 76 153 0
-0.498000 -0.001701 0.167387 76 153 0
-0.764687 0.021692 0.410322 76 153 0
0.154794 -0.048457 0.730389 0 127 127
0.134002 0.045055 -0.743688 153 0 76
0.133336 0.068510 0.423978 0 127 127
0.366990 0.007797 0.421457 0 127 127
0.243658 0.045055 -0.768636 153 0 76
0.216498 -0.021219 0.257326 0 127 127
0.283303 -0.048457 0.344238 0 127 127
0.108780 -0.038234 0.600122 0 127 127
0.389194 -0.033740 0.447738 0 127 127
0.174341 -0.024302 0.502215 0 127 127
0.023493 -0.006732 -0.493233 153 0 76
0.050802 -0.007673 -0.182045 76 153 0
-0.153298 -0.025095 -0.049512 76 153 0
0.326803 0.068510 0.533686 0 127 127
0.305850 -0.059317 -0.380496 153 0 76
0.110213 0.021902 0.584397 0 127 127
0.196052 0.036316 -0.736027 153 0 76
0.391210 0.045055 -0.741637 153 0 76
-0.723142 0.021692 -0.379478 127 0 127
0.031894 -0.007419 0.372018 0 127 127
-0.267408 -0.020996 0.021365 127 127 0
-0.610555 0.018450 -0.205494 127 0 127
-0.470810 -0.001701 -0.116512 127 0 127
-0.133784 -0.001701 -0.178905 76 153 0
0.275449 0.033346 0.504902 0 127 127
-0.783227 -0.018652 -0.396645 127 0 127
0.109621 0.055536 0.590896 0 127 127
0.025355 -0.029789 -0.508994 153 0 76
-0.196860 0.021692 0.028704 127 0 127
0.185926 0.030328 0.498609 0 127 127
0.120612 -0.034128 0.555982 0 127 127
0.371180 -0.071912 -0.770233 153 0 76
-0.053392 -0.025095 -0.250722 76 153 0
0.059977 -0.071912 -0.645550 153 0 76
0.058443 -0.071912 -0.581184 153 0 76
-0.241664 -0.011031 -0.180510 76 153 0
-0.187341 -0.001701 -0.146317 76 153 0
-0.194188 0.021692 0.140289 127 0 127
0.381686 -0.071912 -0.492109 153 0 76
0.411278 -0.071912 -0.700433 153 0 76
-0.843600 -0.007281 -0.441387 127 0 127
-0.109173 -0.001701 0.039329 127 0 127
0.388564 -0.048457 0.718687 0 127 127
-0.618219 -0.001701 -0.267578 127 0 127
0.098208 -0.031227 0.800552 0 127 127
-0.623767 -0.025095 0.293917 76 153 0
-0.802027 -0.025095 -0.411877 127 0 127
0.238083 -0.048457 0.825135 0 127 127
0.088156 -0.025095 -0.243018 76 153 0
0.053302 -0.034392 0.345542 0 127 127
-0.065264 -0.025095 -0.134981 76 153 0
0.035251 -0.058834 -0.592775 153 0 76
-0.340391 -0.010271 -0.097420 76 153 0
0.367772 -0.048457 0.763017 0 127 127
-0.256393 -0.001701 0.109923 127 0 127
-0.355717 -0.025095 -0.031427 76 153 0
-0.599481 -0.001701 -0.165464 127 0 127
-0.317747 0.021692 0.059589 127 0 127
0.362568 -0.023841 0.416635 0 127 127
0.012268 -0.014711 -0.398196 153 0 76
0.322055 0.052296 0.816681 0 127 127
0.117957 0.058826 0.810925 0 127 127
0.351926 0.045055 -0.660435 153 0 76
-0.016985 -0.001701 -0.289422 76 153 0
-0.529759 -0.025095 0.241254 76 153 0
0.055615 -0.001701 -0.200029 76 153 0
0.033754 0.031044 0.481287 0 127 127
-0.854919 0.021692 0.423943 76 153 0
0.126721 0.015369 0.544350 0 127 127
0.099282 0.045055 -0.317435 153 0 76
0.006998 -0.001701 -0.160840 76 153 0
-0.125076 -0.025095 -0.076232 76 153 0
-0.082157 -0.001701 0.132649 127 0 127
0.070960 -0.001701 -0.304450 76 153 0
0.102353 0.068510 0.424940 0 127 127
0.345024 -0.048457 0.547414 0 127 127
0.140352 0.068510 0.794447 0 127 127
0.120933 0.023589 -0.267882 153 0 76
0.020968 -0.044507 0.388706 0 127 127
0.432374 -0.071912 -0.594315 153 0 76
0.180795 0.068510 0.415903 0 127 127
-0.483144 -0.025095 0.074042 76 153 0
0.073528 0.066987 0.769296 0 127 127
-0.185312 -0.025095 -0.188910 76 153 0
0.213251 0.068510 0.312439 0 127 127
0.146038 0.023625 -0.238052 153 0 76
0.181591 -0.071912 -0.310097 153 0 76
0.116511 -0.048457 0.767841 0 127 127
0.004667 -0.001701 0.214951 127 0 127
-0.113824 0.021692 0.104238 127 0 127
0.222991 0.068510 0.813258 0 127 127
-0.079759 -0.001701 0.226647 127 0 127
-0.025442 0.011985 0.345788 127 0 127
0.047974 -0.048457 0.497937 0 127 127
0.203723 -0.048457 0.733245 0 127 127
-0.613781 0.004729 -0.129924 127 0 127
-0.066579 -0.001701 -0.085936 76 153 0
0.276152 -0.037182 0.322387 0 127 127
0.091442 0.045055 -0.785609 153 0 76
0.066966 -0.001701 -0.319734 76 153 0
0.205680 0.041702 0.492459 0 127 127
0.003266 0.021692 0.261164 127 0 127
-0.649228 -0.001701 -0.331994 127 0 127
-0.505799 -0.025095 0.084478 76 153 0
0.304361 -0.032929 0.353153 0 127 127
0.109926 0.068510 0.373469 0 127 127
0.134182 0.050433 0.679322 0 127 127
0.015058 -0.009646 -0.421816 153 0 76
-0.260454 -0.024132 -0.006187 127 127 0
0.030065 -0.004447 0.454578 0 127 127
0.234035 -0.064077 -0.734828 153 0 76
-0.527783 0.007637 -0.301060 127 0 127
0.153671 -0.048457 0.367835 0 127 127
0.072229 0.003465 0.759890 0 127 127
-0.176072 -0.001701 0.017322 127 0 127
-0.250430 -0.025095 -0.090593 76 153 0
0.056761 -0.045128 -0.344132 153 0 76
-0.494407 -0.007495 0.032200 76 153 0
0.246665 0.066394 0.290228 0 127 127
-0.551899 -0.001701 -0.194306 127 0 127
0.337169 0.034563 0.586813 0 127 127
0.022022 -0.060010 -0.480771 153 0 76
0.211615 -0.048457 0.447447 0 127 127
-0.494389 -0.001701 0.227886 76 153 0
-0.817336 -0.001294 -0.449563 127 0 127
0.042564 -0.036050 0.545082 0 127 127
0.282521 -0.071912 -0.437862 153 0 76
-0.443799 -0.001701 -0.115174 127 0 127
0.148149 0.045055 -0.419384 153 0 76
-0.030126 -0.025095 -0.315691 76 153 0
-0.574800 -0.025095 0.115091 76 153 0
0.136944 0.036639 0.529770 0 127 127
-0.237088 -0.012606 0.060245 76 153 0
-0.428513 -0.025095 0.134054 76 153 0
-0.023916 -0.001701 -0.207681 76 153 0
-0.161022 -0.001701 0.087192 127 0 127
-0.216256 -0.001701 -0.186439 76 153 0
0.074023 0.068510 0.524251 0 127 127
-0.043562 0.021692 0.103000 127 0 127
0.236217 0.006463 -0.734195 153 0 76
0.354789 0.068510 0.467117 0 127 127
0.094351 -0.059957 -0.633562 153 0 76
0.122519 -0.048457 0.306092 0 127 127
-0.507248 0.021692 -0.055360 127 0 127
-0.598093 -0.025095 0.307933 76 153 0
0.084991 -0.048457 0.473472 0 127 127
0.454027 -0.030040 0.576239 0 127 127
0.239992 -0.047247 0.493435 0 127 127
-0.134953 -0.025095 -0.128248 76 153 0
0.054424 -0.071912 -0.481268 153 0 76
0.368644 -0.048457 0.487099 0 127 127
0.101052 0.056221 0.286486 0 127 127
0.177676 0.045055 -0.263455 153 0 76
0.043581 -0.048457 0.456442 0 127 127
-0.298146 0.021692 0.021225 127 127 0
0.264471 -0.071912 -0.352099 153 0 76
-0.357321 -0.001701 -0.087482 127 0 127
-0.103250 -0.025095 -0.180376 76 153 0
0.342264 -0.071912 -0.546856 153 0 76
0.053165 0.026822 -0.744430 153 0 76
-0.097688 -0.001701 0.191149 127 0 127
0.112779 0.068510 0.322640 0 127 127
0.128812 -0.048457 0.746319 0 127 127
-0.348560 -0.011706 0.018193 127 127 0
0.056626 0.054537 0.646906 0 127 127
0.033826 0.049256 0.481807 0 127 127
0.090714 -0.060294 -0.303789 153 0 76
0.257220 -0.071912 -0.479870 153 0 76
0.053988 0.045055 -0.535382 153 0 76
-0.378040 -0.001701 0.129046 76 153 0
0.168075 0.000760 0.832466 0 127 127
0.114309 -0.071912 -0.816088 153 0 76
0.180999 -0.071912 -0.382304 153 0 76
0.214217 -0.042052 -0.738044 153 0 76
0.147469 -0.036097 -0.525719 153 0 76
0.237101 0.045055 -0.748825 153 0 76
0.154378 0.057531 0.700473 0 127 127
-0.913965 -0.008213 -0.383632 127 0 127
-0.325227 -0.001701 -0.124057 127 0 127
0.323757 -0.004605 -0.641754 153 0 76
0.159389 0.045055 -0.233842 153 0 76
0.255856 0.068510 0.467870 0 127 127
0.439551 -0.036560 -0.638429 153 0 76
0.189951 0.068510 0.335207 0 127 127
0.411475 -0.048457 0.657381 0 127 127
-0.464431 -0.012092 0.251578 76 153 0
0.228456 -0.071912 -0.845510 153 0 76
0.048499 -0.016450 0.588062 0 127 127
0.220024 0.017354 0.261173 0 127 127
-0.391796 -0.001701 0.140195 76 153 0
0.114361 -0.026903 0.643004 0 127 127
-0.040861 -0.001701 0.249785 127 0 127
0.020873 -0.037292 -0.471052 153 0 76
-0.024282 -0.001701 0.218983 127 0 127
0.224201 0.068510 0.332407 0 127 127
0.196318 0.068510 0.401197 0 127 127
-0.296901 0.012849 -0.114375 127 0 127
-0.558937 0.021692 -0.207695 127 0 127
0.042483 -0.025095 -0.285934 76 153 0
0.075400 0.045055 -0.483144 153 0 76
0.448759 0.036568 0.559316 0 127 127
0.063174 -0.025095 -0.273617 76 153 0
0.111165 -0.002183 -0.232847 76 153 0
-0.002611 -0.001701 0.302279 127 0 127
0.401891 -0.048457 0.581301 0 127 127
0.120895 -0.071912 -0.270171 153 0 76
-0.549248 -0.001701 -0.135553 127 0 127
0.170025 -0.030538 -0.730879 153 0 76
-0.013959 -0.025095 -0.185751 76 153 0
-0.132760 -0.001701 -0.083959 76 153 0
-0.774865 -0.025095 -0.408032 127 0 127
0.398397 0.045055 -0.511174 153 0 76
0.292325 0.068510 0.733466 0 127 127
-0.073393 -0.001701 0.153914 127 0 127
-0.482706 -0.001701 -0.042512 127 0 127
0.106815 -0.046317 -0.284657 153 0 76
-0.052190 -0.025095 -0.274031 76 153 0
0.063452 0.020780 -0.336182 153 0 76
0.164330 -0.071912 -0.262257 153 0 76
-0.483226 -0.001701 0.150080 76 153 0
-0.460877 0.021692 -0.246470 127 0 127
0.062531 -0.071912 -0.788716 153 0 76
-0.460950 -0.001701 -0.225522 127 0 127
0.184882 0.032585 -0.243244 153 0 76
0.035021 0.010292 0.154006 127 0 127
0.204593 0.045055 -0.429933 153 0 76
0.161772 -0.048457 0.746893 0 127 127
-0.457270 -0.025095 0.087639 76 153 0
0.350468 -0.071912 -0.601290 153 0 76
0.049724 -0.056771 -0.715299 153 0 76
0.250380 -0.013858 -0.730090 153 0 76
-0.489986 -0.001701 -0.237034 127 0 127
0.089508 -0.001701 -0.249771 76 153 0
-0.614480 -0.001701 0.360308 76 153 0
0.056126 -0.047990 0.643287 0 127 127
0.068052 0.068510 0.722822 0 127 127
0.113954 -0.071912 -0.485582 153 0 76
0.141817 -0.071912 -0.320438 153 0 76
-0.807127 -0.025095 0.454896 76 153 0
-0.144640 -0.025095 -0.101009 76 153 0
-0.440484 -0.001701 0.150827 76 153 0
0.330276 0.068510 0.501166 0 127 127
0.028746 0.018356 -0.537705 153 0 76
-0.218849 -0.025095 -0.155666 76 153 0
0.314678 -0.071912 -0.507745 153 0 76
-0.513496 -0.009913 0.048266 76 153 0
0.098911 0.006456 0.289135 0 127 127
0.131369 -0.071912 -0.725291 153 0 76
-0.158895 -0.001701 0.172464 127 0 127
-0.611641 -0.025095 0.229054 76 153 0
0.126422 -0.014175 -0.261361 76 153 0
-0.841257 0.010078 -0.442116 127 0 127
0.421717 0.006078 -0.714293 153 0 76
0.194731 -0.048457 0.797075 0 127 127
-0.637809 -0.006915 0.397494 76 153 0
-0.674043 -0.025095 -0.409467 127 0 127
0.390919 -0.071912 -0.569309 153 0 76
0.315702 -0.071912 -0.548209 153 0 76
0.211535 0.068510 0.354157 0 127 127
0.452148 0.041710 0.624457 0 127 127
0.076373 -0.048457 0.523026 0 127 127
0.021216 -0.017011 0.385224 0 127 127
-0.802735 0.021692 0.419851 76 153 0
0.369620 0.002776 0.783873 0 127 127
0.315958 0.045055 -0.753279 153 0 76
0.043329 -0.026142 0.357876 0 127 127
0.078132 -0.025095 -0.215781 76 153 0
0.303134 0.018630 -0.691820 153 0 76
0.033608 -0.025095 -0.214410 76 153 0
0.073525 0.068510 0.322774 0 127 127
-0.490427 0.021692 -0.166590 127 0 127
0.107836 -0.062180 -0.677519 153 0 76
-0.803010 -0.000393 -0.398448 127 0 127
-0.635841 -0.025095 0.388934 76 153 0
-0.641006 -0.001701 -0.313328 127 0 127
-0.447490 -0.001701 -0.014324 127 0 127
0.060377 0.021692 0.307092 127 0 127
0.403695 -0.069050 -0.747030 153 0 76
0.136912 -0.013090 0.820880 0 127 127
-0.509668 0.021692 -0.256244 127 0 127
-0.426447 -0.001701 0.061320 76 153 0
0.174816 0.009092 -0.849094 153 0 76
0.073240 0.045055 -0.799477 153 0 76
-0.072610 -0.025095 -0.215928 76 153 0
0.043755 -0.058796 -0.664767 153 0 76
-0.036245 0.021692 0.258359 127 0 127
-0.215903 -0.001701 -0.118052 76 153 0
-0.556365 0.021692 -0.304604 127 0 127
-0.017825 -0.025095 -0.136062 76 153 0
0.223689 0.068510 0.451047 0 127 127
0.295629 -0.071912 -0.420548 153 0 76
0.066699 0.043119 0.328973 0 127 127
0.298739 -0.046164 -0.372428 153 0 76
0.412343 -0.048457 0.560220 0 127 127
-0.413381 -0.025095 -0.021763 76 153 0
0.344823 -0.048457 0.605178 0 127 127
0.265316 -0.048457 0.380411 0 127 127
0.103063 -0.013919 -0.824969 153 0 76
-0.491435 -0.001701 -0.082578 127 0 127
-0.887773 0.006279 -0.420216 127 0 127
0.248232 -0.032860 0.839663 0 127 127
0.068086 -0.001701 0.309170 127 0 127
0.317265 -0.040969 -0.666152 153 0 76
-0.837480 0.021692 -0.430829 127 0 127
0.128884 0.068510 0.277512 0 127 127
0.076044 -0.071912 -0.457271 153 0 76
0.196727 -0.008572 0.835077 0 127 127
-0.479846 -0.001701 -0.198912 127 0 127
0.332971 -0.019620 -0.818062 153 0 76
0.083342 -0.071912 -0.578856 153 0 76
0.012831 0.033311 -0.402965 153 0 76
0.215824 -0.048457 0.415614 0 127 127
0.039926 0.020746 0.362084 0 127 127
-0.419396 -0.025095 0.177733 76 153 0
0.282724 0.008332 0.706950 0 127 127
0.250875 0.055297 0.494427 0 127 127
-0.227634 0.021692 0.161604 127 0 127
-0.777004 -0.025095 0.456312 76 153 0
0.014094 -0.033391 -0.413659 153 0 76
-0.786971 0.006223 -0.396986 127 0 127
0.373689 -0.071912 -0.593241 153 0 76
0.379008 -0.009139 0.435508 0 127 127
-0.203861 -0.001701 -0.036760 127 0 127
-0.427640 0.021692 0.011240 127 0 127
-0.688157 0.021692 0.417634 76 153 0
0.224421 -0.048457 0.398971 0 127 127
0.097296 0.068510 0.441889 0 127 127
0.274129 0.068510 0.720651 0 127 127
0.155038 -0.048457 0.275774 0 127 127
-0.475873 0.000210 -0.259086 127 0 127
-0.096380 -0.001701 -0.248608 76 153 0
0.026219 -0.059592 -0.516304 153 0 76
0.417257 -0.046476 -0.513361 153 0 76
0.305212 -0.048457 0.776216 0 127 127
-0.063671 -0.011124 -0.330310 76 153 0
-0.367139 0.021692 -0.108609 127 0 127
0.032147 -0.025469 -0.566492 153 0 76
0.046376 -0.048457 0.517095 0 127 127
0.268834 -0.000483 -0.523365 153 0 76
0.097545 -0.029961 -0.599980 153 0 76
0.356161 -0.048457 0.440985 0 127 127
-0.815009 0.005358 0.405456 76 153 0
0.326096 -0.071912 -0.809929 153 0 76
-0.792942 0.009883 -0.452777 127 0 127
-0.438498 0.009912 -0.228866 127 0 127
0.421533 -0.071912 -0.662832 153 0 76
-0.405939 -0.001701 0.013494 127 0 127
0.124599 -0.018982 0.667818 0 127 127
-0.617843 -0.001701 -0.299887 127 0 127
0.381781 -0.048457 0.461933 0 127 127
-0.319758 -0.025095 -0.088136 76 153 0
0.034877 0.018886 -0.589608 153 0 76
-0.837629 -0.025095 -0.424867 127 0 127
-0.037747 -0.025095 -0.182250 76 153 0
-0.717079 -0.025095 -0.409962 127 0 127
0.120008 -0.059677 -0.548712 153 0 76
-0.757898 0.021692 0.435761 76 153 0
-0.042366 0.021692 0.162016 127 0 127
0.202660 0.045055 -0.748730 153 0 76
0.128237 -0.060635 -0.838829 153 0 76
0.213734 0.001900 -0.275980 153 0 76
0.054706 -0.010500 0.633002 0 127 127
0.037851 -0.001701 0.253012 127 0 127
0.378313 0.040025 0.776633 0 127 127
0.019443 0.032439 -0.458942 153 0 76
0.089508 0.045055 -0.415294 153 0 76
0.277996 -0.007167 -0.348893 153 0 76
0.188222 0.068510 0.288481 0 127 127
-0.364865 -0.001701 -0.016646 127 0 127
-0.886264 -0.015902 -0.421472 127 0 127
0.270950 0.068510 0.401074 0 127 127
0.061902 0.045055 -0.695446 153 0 76
0.212364 -0.037059 -0.274426 153 0 76
-0.587523 0.021692 -0.306371 127 0 127
-0.758165 -0.009727 0.454502 76 153 0
0.451362 -0.000562 0.633079 0 127 127
0.226645 -0.031150 0.837804 0 127 127
0.326464 0.045055 -0.677811 153 0 76
0.228338 -0.007141 0.270240 0 127 127
-0.089432 -0.025095 -0.119815 76 153 0
-0.374223 -0.001701 0.051068 76 153 0
-0.425791 -0.025095 0.053933 76 153 0
0.040143 -0.071912 -0.490522 153 0 76
0.010416 -0.001701 0.265287 127 0 127
0.405364 0.045055 -0.735005 153 0 76
0.018793 -0.001701 0.244100 127 0 127
-0.592782 -0.025095 0.127583 76 153 0
-0.061082 -0.025095 -0.315041 76 153 0
-0.518881 -0.025095 0.160851 76 153 0
0.370403 0.034932 -0.454806 153 0 76
0.176456 0.021003 0.213656 0 127 127
0.139387 -0.071912 -0.400885 153 0 76
-0.437224 -0.025095 0.186465 76 153 0
0.252826 -0.048457 0.319729 0 127 127
-0.403336 -0.001701 0.160639 76 153 0
-0.446101 -0.001701 -0.191675 127 0 127
0.263450 -0.071912 -0.728349 153 0 76
0.159025 0.068510 0.508495 0 127 127
0.145097 0.068510 0.447228 0 127 127
0.196509 -0.071912 -0.272270 153 0 76
-0.702002 -0.025095 0.430670 76 153 0
0.356792 0.068510 0.731442 0 127 127
0.016018 -0.013983 -0.152771 76 153 0
-0.544447 0.021692 -0.218239 127 0 127
-0.018277 0.016390 0.110911 127 0 127
-0.111531 -0.001701 -0.232214 76 153 0
0.420525 -0.011487 -0.716459 153 0 76
-0.487642 -0.001701 -0.063575 127 0 127
0.104049 0.045055 -0.809830 153 0 76
0.069178 0.000122 0.325907 0 127 127
0.313201 0.068510 0.717760 0 127 127
0.429919 -0.048683 -0.555047 153 0 76
-0.206534 -0.001701 0.190900 127 0 127
-0.737736 -0.025095 0.414619 76 153 0
-0.068774 0.021692 0.305363 127 0 127
0.059847 -0.025095 -0.299154 76 153 0
0.344504 0.068510 0.760973 0 127 127
0.241598 -0.071912 -0.429008 153 0 76
0.176928 0.038863 -0.849329 153 0 76
-0.026655 -0.001701 -0.346749 76 153 0
0.426924 -0.048457 0.703341 0 127 127
-0.749129 -0.025095 -0.447434 127 0 127
0.098636 -0.052936 -0.590158 153 0 76
0.450256 -0.041278 0.645212 0 127 127
0.393700 -0.071912 -0.620398 153 0 76
0.422603 0.039394 -0.712685 153 0 76
0.121772 -0.024255 -0.241774 76 153 0
0.101744 0.026371 0.802409 0 127 127
0.368506 -0.037583 0.423111 0 127 127
0.054613 0.001927 -0.756692 153 0 76
0.041678 -0.071912 -0.428594 153 0 76
0.241691 0.068510 0.444664 0 127 127
0.327764 -0.039276 0.814903 0 127 127
0.017195 -0.025095 -0.172491 76 153 0
-0.518713 -0.025095 0.111397 76 153 0
0.188313 -0.032115 0.226587 0 127 127
0.427506 0.018068 -0.546722 153 0 76
-0.655072 0.008302 0.373203 76 153 0
0.158021 0.037829 -0.724270 153 0 76
-0.062455 0.021692 0.144402 127 0 127
0.290938 -0.071912 -0.365058 153 0 76
-0.003417 -0.025095 -0.335403 76 153 0
-0.203846 -0.025095 -0.182152 76 153 0
-0.073821 -0.001701 -0.275030 76 153 0
-0.636291 -0.025095 0.353280 76 153 0
0.050398 0.041361 -0.351692 153 0 76
-0.717881 -0.025095 0.410072 76 153 0
0.333407 0.045055 -0.777137 153 0 76
0.289736 0.045055 -0.817900 153 0 76
-0.161683 0.021692 0.091435 127 0 127
0.056495 -0.057519 -0.772622 153 0 76
0.066320 0.021692 0.271753 127 0 127
-0.477506 0.021692 -0.040005 127 0 127
0.431298 -0.046465 0.503227 0 127 127
0.440830 0.009969 -0.626902 153 0 76
0.046424 0.003931 -0.687360 153 0 76
-0.563904 0.009729 -0.330266 127 0 127
0.013168 0.021692 0.156008 127 0 127
-0.592634 -0.001701 0.286685 76 153 0
0.442850 -0.010762 -0.599655 153 0 76
-0.346214 -0.012278 -0.027929 127 127 0
0.335247 -0.056020 -0.816240 153 0 76
-0.174577 0.021692 0.206686 127 0 127
0.335078 0.068510 0.460722 0 127 127
0.392057 -0.071229 -0.768169 153 0 76
0.240695 0.068510 0.428011 0 127 127
0.167970 0.013693 -0.224056 153 0 76
-0.452069 0.021692 -0.044351 127 0 127
0.131429 0.068510 0.492028 0 127 127
0.061140 -0.071912 -0.339571 153 0 76
-0.170151 -0.001701 -0.010703 127 0 127
0.151404 -0.071912 -0.494948 153 0 76
-0.375285 -0.025095 0.130905 76 153 0
0.364718 0.029242 0.418979 0 127 127
-0.390685 -0.025095 0.018795 76 153 0
0.169934 0.013667 -0.514524 153 0 76
0.111995 0.044946 0.807793 0 127 127
0.057060 0.021692 0.322242 127 0 127
0.239959 -0.071912 -0.781861 153 0 76
0.401144 -0.060452 -0.493223 153 0 76
-0.560225 -0.025095 0.270896 76 153 0
-0.831729 -0.016879 -0.445082 127 0 127
-0.310372 -0.001701 0.108347 127 0 127
0.412472 0.014859 -0.731087 153 0 76
0.050228 0.031407 -0.719570 153 0 76
-0.868688 0.006154 0.435974 76 153 0
0.419138 0.045055 -0.651228 153 0 76
0.117977 -0.048457 0.438408 0 127 127
-0.188646 0.021692 -0.012891 127 0 127
-0.472264 0.021692 -0.178397 127 0 127
0.301356 -0.040063 0.823125 0 127 127
0.104300 0.001659 -0.667881 153 0 76
0.246899 -0.048457 0.481906 0 127 127
0.076206 -0.042615 0.788692 0 127 127
0.219608 -0.037089 0.260719 0 127 127
-0.875160 -0.016069 -0.430721 127 0 127
-0.736451 0.021692 -0.416072 127 0 127
0.291236 -0.048457 0.414290 0 127 127
0.097606 0.044895 -0.599437 153 0 76
0.252219 0.068510 0.372870 0 127 127
0.063283 -0.015066 0.333198 0 127 127
0.027825 -0.001701 -0.231999 76 153 0
-0.750530 0.005997 0.394320 76 153 0
0.137114 0.068510 0.307073 0 127 127
0.069022 -0.048457 0.638204 0 127 127
0.452916 -0.047811 0.616024 0 127 127
-0.004650 -0.025095 -0.216756 76 153 0
-0.644397 -0.013724 -0.380468 127 0 127
0.316216 -0.048457 0.379509 0 127 127
0.329791 -0.061946 -0.407659 153 0 76
-0.187842 0.012203 0.214477 127 0 127
-0.427521 -0.011323 -0.024091 76 153 0
0.341431 0.045055 -0.601052 153 0 76
-0.530261 0.021692 -0.142136 127 0 127
0.114186 0.068510 0.789917 0 127 127
0.146596 0.067492 0.694227 0 127 127
-0.329830 -0.001701 0.119256 76 153 0
0.445442 -0.020186 0.548661 0 127 127
-0.487052 0.021692 -0.110262 127 0 127
0.131709 -0.048457 0.776448 0 127 127
-0.490197 0.021692 -0.253127 127 0 127
-0.023377 0.021692 0.176809 127 0 127
0.019347 0.011768 -0.388587 153 0 76
0.288195 -0.045767 0.702392 0 127 127
0.437875 0.068510 0.677798 0 127 127
0.110856 -0.010949 0.577337 0 127 127
-0.275373 0.021692 0.044405 127 0 127
0.302960 0.027394 0.690094 0 127 127
-0.887281 -0.013966 0.421096 76 153 0
-0.222458 -0.025095 -0.042415 76 153 0
0.072035 -0.001701 0.237519 127 0 127
0.065659 0.068510 0.379842 0 127 127
-0.071914 -0.001701 -0.309356 76 153 0
-0.399411 0.021692 -0.104844 127 0 127
0.186248 0.026098 -0.850363 153 0 76
0.242558 0.068510 0.470282 0 127 127
-0.527101 -0.001701 -0.152955 127 0 127
0.257480 0.043019 -0.847474 153 0 76
0.282227 0.068510 0.768826 0 127 127
0.033654 -0.034538 0.369842 0 127 127
-0.298832 0.021692 -0.003663 127 127 0
-0.392724 -0.025095 -0.006467 76 153 0
-0.575959 -0.025095 0.176145 76 153 0
-0.088299 -0.001701 0.261318 127 0 127
0.021159 0.026715 0.390090 0 127 127
0.026414 0.037508 0.428138 0 127 127
0.226006 0.045055 -0.438430 153 0 76
0.043303 0.016887 -0.660937 153 0 76
0.040518 0.010764 0.530266 0 127 127
-0.285990 0.010708 0.039423 127 127 0
-0.450163 -0.001701 0.179006 76 153 0
0.206815 -0.071912 -0.769569 153 0 76
-0.319461 -0.012461 -0.046277 127 127 0
0.107920 -0.021706 0.805653 0 127 127
0.402158 -0.071912 -0.671035 153 0 76
0.040273 0.068510 0.475368 0 127 127
-0.169656 -0.001701 0.147233 127 0 127
0.409133 0.000989 0.471676 0 127 127
0.344792 0.012403 0.804554 0 127 127
0.384932 0.045055 -0.637208 153 0 76
0.336135 0.016845 0.633427 0 127 127
0.099287 -0.043643 -0.822891 153 0 76
0.329256 0.018306 -0.821034 153 0 76
0.199965 0.005998 -0.851886 153 0 76
0.109036 -0.015897 -0.568642 153 0 76
-0.149458 -0.001701 -0.216996 76 153 0
0.179349 -0.010667 -0.511795 153 0 76
0.171506 -0.037847 -0.514069 153 0 76
0.213594 0.005682 0.254160 0 127 127
0.266743 0.068510 0.745896 0 127 127
0.434820 -0.068869 -0.571954 153 0 76
-0.586894 -0.001701 0.248188 76 153 0
0.109315 0.045055 -0.375373 153 0 76
0.408052 -0.022111 0.470378 0 127 127
0.153433 -0.069971 -0.721744 153 0 76
0.210529 -0.048457 0.315040 0 127 127
0.009570 -0.025095 -0.189390 76 153 0
0.435504 0.068510 0.551464 0 127 127
0.417109 0.068510 0.723051 0 127 127
-0.214462 -0.001701 0.083250 127 0 127
0.288280 0.056068 0.702322 0 127 127
0.165277 0.001746 0.506171 0 127 127
0.077384 -0.002922 -0.810832 153 0 76
-0.598363 0.021692 -0.315668 127 0 127
-0.237078 -0.001701 0.139392 127 0 127
0.068404 0.056230 0.732195 0 127 127
-0.502586 -0.001701 0.112944 76 153 0
0.088871 -0.071912 -0.754701 153 0 76
-0.402945 0.021692 -0.079238 127 0 127
-0.563074 -0.020711 0.089991 76 153 0
0.035747 -0.025095 -0.319966 76 153 0
0.097502 0.068510 0.719320 0 127 127
-0.754698 0.021692 -0.403620 127 0 127
-0.696168 -0.025095 -0.370289 127 0 127
0.049051 -0.001701 -0.251726 76 153 0
-0.557371 -0.001701 0.160856 76 153 0
0.051835 0.028466 0.347357 0 127 127
0.364541 0.044908 -0.792800 153 0 76
0.304823 -0.008817 0.353656 0 127 127
0.417401 0.000789 0.731056 0 127 127
-0.306978 0.008857 -0.048212 127 127 0
0.111793 0.006359 0.216082 127 0 127
0.408586 0.045055 -0.554727 153 0 76
-0.791937 -0.025095 -0.426801 127 0 127
-0.295604 -0.025095 0.096230 76 153 0
-0.559819 -0.000633 -0.086292 127 0 127
0.306225 0.068510 0.734149 0 127 127
0.081135 -0.071912 -0.494991 153 0 76
0.324817 0.008647 -0.402016 153 0 76
-0.287255 -0.025095 0.002163 127 127 0
0.061829 -0.035216 0.684581 0 127 127
0.324678 -0.048457 0.501782 0 127 127
0.019528 -0.025095 -0.283244 76 153 0
-0.173216 -0.001701 -0.071472 76 153 0
0.380049 -0.071912 -0.533986 153 0 76
-0.173540 -0.025095 -0.064917 76 153 0
0.225716 0.045055 -0.850629 153 0 76
-0.521496 -0.001701 0.219484 76 153 0
0.327971 0.045055 -0.803658 153 0 76
0.257134 0.017336 0.301646 0 127 127
0.085737 -0.048457 0.315241 0 127 127
0.321721 -0.058747 -0.593838 153 0 76
0.088240 -0.001701 0.230179 127 0 127
0.168816 0.068510 0.408888 0 127 127
0.109086 0.013039 -0.568551 153 0 76
0.335641 -0.071912 -0.434541 153 0 76
0.091444 0.068510 0.676003 0 127 127
0.270704 0.036070 -0.340619 153 0 76
0.143944 -0.048457 0.436404 0 127 127
-0.456746 -0.025095 0.018642 76 153 0
-0.833286 0.021692 0.436705 76 153 0
0.026421 0.021692 0.246836 127 0 127
0.050120 0.045055 -0.624842 153 0 76
-0.912314 0.000815 0.401065 76 153 0
0.199782 0.068510 0.438675 0 127 127
-0.026797 -0.025095 -0.258653 76 153 0
-0.136671 -0.025095 -0.162013 76 153 0
0.421774 -0.038864 -0.526948 153 0 76
-0.096233 -0.001701 0.159793 127 0 127
-0.328659 -0.001701 0.085559 127 0 127
-0.341364 -0.025095 -0.059013 76 153 0
0.195137 0.050563 0.834932 0 127 127
0.238875 0.045055 -0.474617 153 0 76
0.116811 0.003929 0.650875 0 127 127
-0.019509 0.021692 0.148250 127 0 127
-0.608032 0.005821 -0.365946 127 0 127
-0.639100 -0.001701 0.331387 76 153 0
0.231277 0.045055 -0.346252 153 0 76
0.028149 -0.071912 -0.458362 153 0 76
-0.585383 -0.001701 0.200804 76 153 0
0.094544 -0.011308 -0.627016 153 0 76
0.301308 -0.071378 -0.834769 153 0 76
0.325150 -0.048457 0.775565 0 127 127
-0.581286 -0.001701 -0.180695 127 0 127
0.407706 0.045055 -0.714042 153 0 76
-0.423598 0.008430 -0.216819 127 0 127
0.145723 -0.071912 -0.338317 153 0 76
0.228434 0.010870 -0.855046 153 0 76
-0.201277 0.021692 0.007037 127 0 127
-0.237954 0.021692 0.138978 127 0 127
0.133827 0.004594 -0.252561 153 0 76
0.047564 -0.050043 -0.697014 153 0 76
-0.131118 0.021692 0.088932 127 0 127
0.249419 0.016463 0.719143 0 127 127
0.228679 0.068510 0.359737 0 127 127
0.419380 0.068510 0.580457 0 127 127
0.416914 0.068510 0.657767 0 127 127
-0.544155 -0.001701 -0.243630 127 0 127
-0.032743 -0.025095 -0.206991 76 153 0
-0.495428 0.021692 -0.213541 127 0 127
0.092503 0.021692 0.235807 127 0 127
0.172528 0.068510 0.746354 0 127 127
-0.032791 -0.001701 0.318565 127 0 127
0.185512 0.068510 0.262838 0 127 127
0.323368 -0.060351 -0.645257 153 0 76
-0.200063 0.013068 -0.036075 127 0 127
0.328965 0.020393 0.652718 0 127 127
-0.244773 0.021692 0.033894 127 0 127
-0.096184 0.021692 0.239399 127 0 127
-0.455104 -0.001701 -0.064921 127 0 127
0.052295 0.041591 0.615546 0 127 127
0.104866 0.035546 -0.576217 153 0 76
0.253587 -0.071912 -0.421313 153 0 76
0.148759 0.045055 -0.392474 153 0 76
-0.600190 0.021692 -0.176938 127 0 127
0.038778 -0.033280 0.517667 0 127 127
0.332505 0.040233 0.571831 0 127 127
0.022386 -0.071912 -0.406875 153 0 76
0.153704 0.030774 0.829698 0 127 127
-0.219785 -0.001701 -0.018384 76 153 0
-0.266515 0.012256 0.019665 127 127 0
-0.007658 0.021692 0.232949 127 0 127
-0.676330 -0.022382 0.424889 76 153 0
-0.675632 0.021692 -0.407064 127 0 127
-0.138221 -0.001701 -0.100873 76 153 0
0.146192 -0.015136 0.230659 0 127 127
0.280486 -0.011648 0.507547 0 127 127
0.018717 0.021692 0.267522 127 0 127
0.256441 0.040235 0.494934 0 127 127
0.067569 0.045055 -0.556913 153 0 76
-0.151555 0.021692 0.194231 127 0 127
-0.083166 -0.019982 -0.313902 76 153 0
0.168590 -0.034860 0.707938 0 127 127
0.124400 0.033659 0.814308 0 127 127
0.235913 -0.059822 -0.301145 153 0 76
-0.691778 -0.025095 0.365398 76 153 0
0.129356 -0.016573 0.539333 0 127 127
-0.407139 0.021692 -0.004700 127 0 127
0.293113 -0.048457 0.392045 0 127 127
0.129808 0.038822 0.674071 0 127 127
0.302133 -0.048457 0.456679 0 127 127
-0.169885 -0.001701 0.228842 127 0 127
-0.222736 -0.001701 -0.090589 76 153 0
0.018202 -0.001701 0.352200 127 0 127
-0.253235 -0.001701 -0.096626 76 153 0
0.125919 0.068510 0.384617 0 127 127
0.174714 0.068510 0.727988 0 127 127
0.095897 0.028156 -0.614832 153 0 76
-0.261382 -0.013006 0.002507 127 127 0
0.045729 -0.001701 0.278559 127 0 127
0.088340 -0.071912 -0.677372 153 0 76
-0.615774 -0.014804 0.378949 76 153 0
0.274285 0.016154 0.320351 0 127 127
-0.006016 -0.001701 -0.188593 76 153 0
0.065041 0.045055 -0.425201 153 0 76
-0.400680 -0.025095 0.050173 76 153 0
0.261540 -0.048457 0.496191 0 127 127
-0.331879 0.021692 -0.082936 127 0 127
0.038000 0.024073 -0.616048 153 0 76
0.166736 -0.028771 -0.848197 153 0 76
0.200089 0.045055 -0.448668 153 0 76
-0.119608 -0.001701 0.085932 127 0 127
-0.751956 -0.025095 -0.422451 127 0 127
-0.478445 0.021692 -0.138519 127 0 127
0.182602 0.068510 0.805751 0 127 127
0.177036 0.033383 0.712374 0 127 127
0.239333 -0.019227 0.722283 0 127 127
-0.285274 -0.006515 0.100799 127 0 127
-0.334794 -0.016981 0.035057 127 127 0
0.442807 0.035889 -0.609097 153 0 76
0.052684 0.015214 0.618367 0 127 127
-0.216017 -0.025095 0.023751 76 153 0
0.069333 -0.045281 0.738923 0 127 127
0.042161 0.034897 0.542167 0 127 127
0.266925 -0.023662 -0.336331 153 0 76
-0.009526 -0.025095 -0.270590 76 153 0
0.274374 0.045055 -0.457675 153 0 76
0.126209 -0.071912 -0.530911 153 0 76
0.205548 0.045055 -0.785945 153 0 76
0.101101 -0.071912 -0.432328 153 0 76
-0.607083 -0.025095 0.155798 76 153 0
0.108937 -0.019778 -0.678895 153 0 76
-0.497923 -0.001701 0.079259 76 153 0
-0.124180 -0.001701 0.215005 127 0 127
0.187098 -0.048457 0.241312 0 127 127
-0.668139 -0.001701 0.346698 76 153 0
-0.442530 -0.025095 0.132726 76 153 0
-0.713807 -0.019122 0.445521 76 153 0
0.182013 -0.048457 0.488729 0 127 127
0.027863 0.021692 0.297423 127 0 127
0.035954 -0.037521 0.497223 0 127 127
0.435382 0.068510 0.640940 0 127 127
-0.313991 0.003776 -0.128194 127 0 127
0.168723 -0.055054 -0.848418 153 0 76
0.173100 -0.048457 0.300801 0 127 127
-0.698018 -0.025095 -0.398030 127 0 127
0.318630 0.000005 -0.583172 153 0 76
-0.011874 -0.001701 0.166987 127 0 127
0.319109 -0.025649 0.671484 0 127 127
-0.913478 -0.025095 -0.385330 127 0 127
0.409955 -0.071912 -0.734092 153 0 76
-0.582603 0.010707 -0.345385 127 0 127
0.135954 -0.011579 -0.534934 153 0 76
0.308611 0.045055 -0.453197 153 0 76
-0.712954 -0.025095 -0.396827 127 0 127
0.107157 -0.071912 -0.377665 153 0 76
0.357995 -0.033733 -0.798038 153 0 76
-0.608641 0.021692 -0.255917 127 0 127
0.447926 -0.035445 0.670769 0 127 127
0.392056 -0.048457 0.604369 0 127 127
0.248346 0.064062 0.719477 0 127 127
-0.582111 -0.025095 0.285166 76 153 0
-0.273571 -0.025095 0.089317 76 153 0
0.217752 0.014314 -0.738436 153 0 76
0.117413 -0.071912 -0.367077 153 0 76
0.056955 0.009281 0.171741 127 0 127
0.290284 0.007475 -0.837965 153 0 76
-0.086250 0.021692 0.191369 127 0 127
0.159930 0.045055 -0.305805 153 0 76
0.139842 0.068510 0.807569 0 127 127
0.167373 -0.048457 0.324813 0 127 127
0.014783 -0.001701 -0.378780 76 153 0
-0.709702 0.002579 -0.365231 127 0 127
0.199206 0.045055 -0.851256 153 0 76
0.290459 0.015817 0.337990 0 127 127
0.337237 -0.024320 -0.416108 153 0 76
-0.502855 -0.025095 0.114239 76 153 0
-0.769961 0.021018 -0.450682 127 0 127
-0.000911 -0.001701 0.278524 127 0 127
0.305462 -0.071912 -0.401086 153 0 76
0.441136 -0.035040 0.685863 0 127 127
0.238309 -0.048457 0.447814 0 127 127
-0.140141 0.021692 0.109296 127 0 127
-0.273708 -0.025095 0.071726 76 153 0
0.239891 -0.042117 -0.305658 153 0 76
-0.430471 -0.001701 0.206270 76 153 0
0.059588 -0.000884 0.668355 0 127 127
0.325161 -0.008585 -0.629103 153 0 76
0.123341 -0.071912 -0.322494 153 0 76
0.025615 0.013465 -0.511190 153 0 76
0.438993 -0.066622 -0.643451 153 0 76
-0.594340 -0.001701 0.132544 76 153 0
-0.518074 -0.001701 -0.226328 127 0 127
-0.450191 0.021692 -0.139961 127 0 127
-0.383731 -0.025095 -0.029006 76 153 0
-0.156278 -0.001701 0.201677 127 0 127
0.188354 0.068510 0.321726 0 127 127
0.331245 0.045055 -0.754148 153 0 76
0.023007 -0.001701 -0.249299 76 153 0
0.274310 0.056812 0.320379 0 127 127
0.107425 -0.071912 -0.711266 153 0 76
0.176703 0.032145 -0.512562 153 0 76
-0.487863 -0.001701 -0.263988 127 0 127
0.274643 0.036170 0.320741 0 127 127
0.096729 -0.048457 0.609406 0 127 127
0.287269 -0.052957 -0.359414 153 0 76
-0.311231 -0.001701 0.055981 76 153 0
0.100666 0.068510 0.397978 0 127 127
-0.253291 0.021692 0.145590 127 0 127
0.309139 -0.012651 -0.561859 153 0 76
-0.418773 0.021692 -0.083446 127 0 127
-0.603088 -0.003180 0.368273 76 153 0
0.066879 -0.042860 0.328751 0 127 127
0.273064 -0.048457 0.395242 0 127 127
0.069865 0.068510 0.480580 0 127 127
0.045200 0.045055 -0.563258 153 0 76
-0.105972 0.021692 0.167887 127 0 127
0.406625 0.002958 -0.500073 153 0 76
0.196485 -0.071912 -0.297154 153 0 76
0.228812 0.068510 0.405768 0 127 127
-0.582265 -0.001701 0.329470 76 153 0
0.158462 0.025627 -0.847279 153 0 76
-0.539866 0.021692 -0.238984 127 0 127
-0.544401 -0.025095 0.144736 76 153 0
0.046503 0.068510 0.379244 0 127 127
-0.474694 -0.001701 -0.245176 127 0 127
-0.418391 0.021692 -0.106782 127 0 127
-0.517762 0.021692 -0.202824 127 0 127
0.196019 0.013095 -0.255880 153 0 76
-0.119509 0.021692 0.229929 127 0 127
0.156682 -0.071912 -0.768544 153 0 76
-0.456793 -0.001701 0.196659 76 153 0
0.122067 0.032837 0.553212 0 127 127
0.036465 0.060092 0.500917 0 127 127
-0.426528 -0.001701 -0.091274 127 0 127
-0.041456 0.021692 0.189828 127 0 127
-0.546364 0.021692 -0.162712 127 0 127
0.184310 -0.048457 0.827763 0 127 127
0.161870 0.045055 -0.474557 153 0 76
-0.006372 -0.025095 -0.242709 76 153 0
0.162280 -0.008801 -0.847703 153 0 76
-0.154349 -0.025095 -0.173982 76 153 0
0.103069 0.068510 0.346377 0 127 127
-0.219018 -0.001701 0.159885 127 0 127
-0.448653 -0.001701 -0.163881 127 0 127
0.423962 -0.069590 -0.534498 153 0 76
0.188886 -0.000791 0.227213 0 127 127
0.003773 -0.025095 -0.255643 76 153 0
-0.563097 -0.001701 -0.260828 127 0 127
0.252582 -0.040833 -0.514417 153 0 76
0.193194 0.006534 -0.735710 153 0 76
-0.307442 -0.016107 -0.125150 76 153 0
0.178738 -0.071912 -0.253589 153 0 76
-0.663282 0.021692 0.401409 76 153 0
-0.016285 -0.025095 -0.292770 76 153 0
-0.233506 -0.001701 0.095581 127 0 127
0.440942 -0.018575 -0.625895 153 0 76
-0.271213 -0.025095 -0.131093 76 153 0
-0.234966 -0.001701 -0.122022 76 153 0
0.339365 0.059175 0.597980 0 127 127
-0.034870 -0.001701 -0.266512 76 153 0
0.317063 0.001340 -0.830202 153 0 76
-0.008975 -0.025095 -0.162424 76 153 0
0.129191 -0.048457 0.282607 0 127 127
0.295339 0.046556 0.824998 0 127 127
-0.557757 -0.025095 0.242411 76 153 0
0.163814 -0.071912 -0.293362 153 0 76
-0.164591 -0.001701 0.074553 127 0 127
0.006094 0.021692 0.310337 127 0 127
-0.255858 -0.001701 0.047324 127 0 127
-0.691706 -0.025095 -0.417548 127 0 127
0.325978 -0.009335 -0.608522 153 0 76
0.319612 -0.010585 0.369786 0 127 127
0.439146 0.001427 -0.586876 153 0 76
0.189153 0.068510 0.358630 0 127 127
0.038960 -0.010299 -0.624170 153 0 76
0.363525 -0.048457 0.628033 0 127 127
0.304173 0.017727 0.352948 0 127 127
0.109253 0.034487 0.594925 0 127 127
0.222651 -0.021279 -0.286097 153 0 76
-0.360853 0.021692 0.050655 127 0 127
0.052155 -0.025095 -0.249178 76 153 0
0.048106 -0.041239 0.585213 0 127 127
-0.543049 -0.001701 -0.291444 127 0 127
0.108857 0.021692 0.276138 0 127 127
0.033949 -0.048457 0.387990 0 127 127
0.061827 0.068510 0.519782 0 127 127
-0.493127 0.021692 -0.122519 127 0 127
-0.570477 -0.001701 0.171940 76 153 0
-0.169878 0.021692 0.162237 127 0 127
0.097399 -0.016527 -0.601295 153 0 76
-0.651775 -0.025095 -0.395270 127 0 127
0.438255 0.020478 0.525575 0 127 127
0.162931 0.012098 0.704966 0 127 127
0.185163 0.045055 -0.312606 153 0 76
0.257069 -0.001275 0.301575 0 127 127
0.052835 -0.048457 0.363358 0 127 127
0.047708 0.030529 -0.698229 153 0 76
0.272039 -0.071912 -0.841020 153 0 76
-0.273768 -0.001701 -0.083616 76 153 0
0.236112 0.068510 0.327269 0 127 127
0.436185 0.029068 -0.668750 153 0 76
-0.686898 0.008587 0.430707 76 153 0
-0.484787 -0.001701 0.055035 76 153 0
-0.141921 -0.001701 -0.063711 76 153 0
0.306991 0.013337 -0.833122 153 0 76
0.454372 0.041396 0.600051 0 127 127
-0.071485 -0.001701 -0.118184 76 153 0
0.156266 0.068510 0.426681 0 127 127
0.123790 -0.048457 0.715996 0 127 127
0.211734 0.045055 -0.381980 153 0 76
0.243917 0.068510 0.776370 0 127 127
0.054106 -0.032965 0.628657 0 127 127
-0.734903 -0.025095 -0.389430 127 0 127
0.153951 -0.033527 0.221064 0 127 127
0.288300 -0.071912 -0.802386 153 0 76
0.245891 -0.048457 0.796877 0 127 127
-0.482740 -0.025095 0.195339 76 153 0
0.149996 -0.071912 -0.513082 153 0 76
0.436604 -0.048457 0.680169 0 127 127
0.044890 -0.071912 -0.506343 153 0 76
0.128013 0.057939 0.541891 0 127 127
0.152688 -0.071912 -0.388485 153 0 76
0.411159 -0.027349 -0.505740 153 0 76
0.273169 0.068510 0.354059 0 127 127
0.380806 0.068510 0.581162 0 127 127
0.312461 0.043563 0.534862 0 127 127
0.309068 0.068510 0.689796 0 127 127
-0.271420 0.021692 0.106509 127 0 127
0.090105 -0.071912 -0.459963 153 0 76
0.440884 -0.048179 -0.626417 153 0 76
-0.044084 -0.001701 -0.121695 76 153 0
0.134936 0.045055 -0.435958 153 0 76
0.121399 -0.048457 0.423814 0 127 127
0.008177 -0.001701 0.371376 127 0 127
0.443379 -0.053199 -0.603943 153 0 76
-0.510323 0.021692 -0.119548 127 0 127
0.118532 0.004576 -0.833486 153 0 76
0.331662 -0.071912 -0.613659 153 0 76
0.217567 -0.048457 0.806492 0 127 127
0.192063 0.068510 0.762066 0 127 127
-0.084575 0.021692 0.215692 127 0 127
-0.782490 0.021692 0.417892 76 153 0
0.322638 -0.071912 -0.595098 153 0 76
-0.387707 -0.025095 0.093915 76 153 0
0.117576 0.045055 -0.350919 153 0 76
-0.612297 -0.001701 0.255494 76 153 0
-0.460594 -0.025095 0.200864 76 153 0
0.036359 0.034698 0.500149 0 127 127
-0.057559 0.004700 0.079149 127 0 127
0.415698 0.025568 0.734299 0 127 127
0.213887 0.068510 0.784804 0 127 127
-0.025053 -0.025095 -0.233051 76 153 0
-0.084561 0.021692 0.230049 127 0 127
0.117050 0.068510 0.503261 0 127 127
-0.791593 -0.017798 0.402856 76 153 0
0.106919 -0.048457 0.490386 0 127 127
0.054090 -0.011187 -0.752258 153 0 76
0.421707 0.037337 -0.526718 153 0 76
-0.223510 0.021692 -0.007895 127 0 127
-0.700141 0.021692 -0.364120 127 0 127
0.361931 0.068510 0.504507 0 127 127
0.289071 -0.044394 -0.536780 153 0 76
-0.377778 -0.001701 -0.016803 76 153 0
0.039756 -0.066822 -0.630908 153 0 76
0.365114 -0.071912 -0.790725 153 0 76
-0.256612 0.021692 -0.024941 127 0 127
0.104977 -0.048457 0.802098 0 127 127
-0.086723 -0.025095 -0.201347 76 153 0
0.282221 0.068510 0.797053 0 127 127
0.350777 0.045055 -0.707240 153 0 76
-0.632731 0.021692 -0.305332 127 0 127
0.011231 -0.025095 -0.311040 76 153 0
0.098554 -0.039086 -0.590891 153 0 76
-0.632461 -0.001701 -0.299482 127 0 127
-0.657943 -0.007837 0.324799 76 153 0
0.386306 0.029262 -0.775384 153 0 76
0.115983 0.045055 -0.733694 153 0 76
-0.546297 -0.014560 0.320477 76 153 0
0.286431 -0.002715 -0.358463 153 0 76
0.337747 -0.039386 0.588671 0 127 127
-0.052972 -0.001701 0.206150 127 0 127
0.306186 -0.017507 0.687408 0 127 127
0.171395 0.039548 0.208136 0 127 127
0.322596 -0.020939 -0.826364 153 0 76
-0.242073 0.021692 -0.017778 127 0 127
0.421642 -0.037127 0.722982 0 127 127
-0.357614 -0.025095 0.035105 76 153 0
0.268160 0.045055 -0.375049 153 0 76
-0.653012 0.007035 0.410288 76 153 0
-0.575635 0.021692 -0.248423 127 0 127
0.240705 -0.071912 -0.488542 153 0 76
-0.586880 0.021692 -0.127370 127 0 127
-0.459516 -0.001701 -0.245275 127 0 127
-0.586729 -0.025095 0.214118 76 153 0
-0.148251 -0.025095 -0.239077 76 153 0
-0.151063 -0.001701 -0.187765 76 153 0
0.199969 -0.022778 0.494237 0 127 127
0.391956 0.068510 0.559034 0 127 127
-0.647735 -0.012287 0.312041 76 153 0
0.242185 0.068510 0.309790 0 127 127
0.330619 0.045055 -0.544331 153 0 76
0.183045 0.068510 0.370740 0 127 127
0.073466 -0.059447 -0.324283 153 0 76
0.031591 0.034789 -0.561783 153 0 76
-0.677305 0.021692 0.373010 76 153 0
0.432867 0.044340 -0.565215 153 0 76
0.450329 0.050286 0.644407 0 127 127
0.314792 -0.048457 0.408910 0 127 127
-0.508120 -0.001701 0.272951 76 153 0
-0.019357 0.021692 0.315293 127 0 127
0.044870 -0.001701 0.293624 127 0 127
0.217537 0.045055 -0.340698 153 0 76
0.423727 0.045055 -0.612043 153 0 76
0.201378 0.068510 0.286404 0 127 127
0.386221 0.045055 -0.664537 153 0 76
-0.363993 0.021692 0.020268 127 0 127
-0.360570 -0.001701 -0.147072 127 0 127
0.184443 -0.036848 0.499070 0 127 127
0.116553 0.045055 -0.282834 153 0 76
0.157214 0.056052 0.217028 0 127 127
0.416933 -0.071912 -0.627783 153 0 76
0.284853 0.029670 -0.356672 153 0 76
0.304475 -0.047012 -0.689384 153 0 76
-0.610887 -0.001701 -0.173796 127 0 127
0.043386 -0.048457 0.373788 0 127 127
-0.485335 -0.025095 0.039888 76 153 0
0.096499 -0.035687 -0.296915 153 0 76
0.331413 -0.046948 -0.409500 153 0 76
0.105607 0.003343 -0.286092 153 0 76
0.319164 -0.036513 -0.585016 153 0 76
0.170782 -0.071912 -0.395675 153 0 76
0.299225 0.068510 0.471342 0 127 127
0.382401 0.031248 -0.469800 153 0 76
-0.369448 0.021692 -0.048116 127 0 127
-0.261191 -0.025095 -0.122197 76 153 0
-0.197531 -0.001701 -0.062862 76 153 0
0.088381 0.021692 0.288252 127 0 127
0.120045 0.045055 -0.536598 153 0 76
0.221524 -0.048457 0.281655 0 127 127
-0.278494 0.021692 -0.026349 127 127 0
0.031423 0.045055 -0.457153 153 0 76
0.120991 0.029098 -0.693959 153 0 76
0.328623 0.068510 0.423396 0 127 127
0.372817 -0.048457 0.738720 0 127 127
0.391602 0.065281 0.765564 0 127 127
0.161551 -0.014501 0.704241 0 127 127
0.072018 0.068510 0.542179 0 127 127
0.312933 0.045055 -0.728676 153 0 76
0.196201 -0.048457 0.283185 0 127 127
0.074903 -0.007585 0.779253 0 127 127
-0.303825 -0.025095 -0.070864 76 153 0
-0.570769 -0.009609 0.096467 76 153 0
-0.617878 0.020400 -0.231640 127 0 127
-0.601660 -0.025095 0.174666 76 153 0
0.372759 0.045055 -0.496877 153 0 76
-0.756326 -0.016523 -0.389718 127 0 127
0.207431 -0.071912 -0.367535 153 0 76
-0.595321 -0.025095 0.247388 76 153 0
-0.117670 -0.013337 -0.284864 76 153 0
-0.898717 0.021692 0.406321 76 153 0
0.423052 -0.048457 0.638362 0 127 127
0.213021 0.045055 -0.506854 153 0 76
0.022349 0.049453 0.398702 0 127 127
0.232630 -0.022092 -0.509239 153 0 76
-0.316488 -0.001701 -0.053991 127 0 127
-0.613072 -0.001701 0.330993 76 153 0
0.153600 0.045055 -0.453054 153 0 76
-0.163733 0.009217 -0.006700 127 0 127
-0.524340 -0.025095 0.094239 76 153 0
0.071054 0.026502 -0.327148 153 0 76
0.359535 0.059752 0.413327 0 127 127
0.118241 0.030819 0.655466 0 127 127
-0.078173 -0.001701 -0.094662 76 153 0
0.360429 0.022775 0.791529 0 127 127
-0.376502 0.021692 0.016719 127 0 127
0.248290 -0.071912 -0.805910 153 0 76
0.442806 -0.048457 0.578272 0 127 127
-0.396680 -0.001701 0.114057 76 153 0
-0.831018 0.021692 -0.443320 127 0 127
0.177004 0.045055 -0.462541 153 0 76
-0.867287 -0.025095 0.424659 76 153 0
-0.374615 -0.025095 0.069995 76 153 0
0.452711 -0.025056 0.618276 0 127 127
-0.401355 -0.001701 -0.178934 127 0 127
0.117101 -0.000015 0.810475 0 127 127
0.311736 0.068510 0.386980 0 127 127
0.016140 0.021692 0.169586 127 0 127
0.309562 -0.071912 -0.711700 153 0 76
-0.493000 -0.025095 0.148828 76 153 0
-0.590061 -0.025095 0.321405 76 153 0
-0.592076 -0.001701 -0.289189 127 0 127
-0.584830 -0.025095 0.269056 76 153 0
0.195946 -0.048457 0.721640 0 127 127
-0.416487 -0.001701 0.084468 76 153 0
-0.153982 -0.025095 -0.073923 76 153 0
0.355068 -0.048457 0.690624 0 127 127
0.098850 0.026151 -0.588227 153 0 76
0.319395 -0.023278 -0.585812 153 0 76
0.339973 0.036169 0.391992 0 127 127
0.150240 -0.031875 0.518695 0 127 127
-0.091568 -0.025095 -0.289010 76 153 0
-0.538402 -0.011438 0.069227 76 153 0
-0.451803 -0.025095 0.119664 76 153 0
0.131480 0.045055 -0.490129 153 0 76
0.304368 0.068510 0.407472 0 127 127
-0.338098 -0.001701 -0.049270 127 0 127
0.354295 0.038963 -0.435462 153 0 76
0.225792 0.052201 0.492140 0 127 127
0.139269 -0.071912 -0.784485 153 0 76
0.006203 -0.001701 -0.268976 76 153 0
0.293193 0.068510 0.710612 0 127 127
-0.148198 -0.025095 -0.201971 76 153 0
-0.103292 0.021692 0.268931 127 0 127
-0.152277 -0.025095 -0.148933 76 153 0
-0.187212 0.021692 0.108877 127 0 127
0.246636 -0.048457 0.396572 0 127 127
-0.384120 0.021692 -0.140196 127 0 127
0.338616 0.068510 0.549350 0 127 127
0.425746 0.068510 0.527497 0 127 127
-0.352479 -0.011104 -0.012868 127 0 127
-0.093524 -0.001701 -0.299465 76 153 0
0.124617 -0.071912 -0.829884 153 0 76
-0.339320 -0.001701 -0.147105 127 0 127
0.091169 -0.071912 -0.565905 153 0 76
0.017691 -0.030595 -0.444105 153 0 76
0.439395 -0.010042 -0.639831 153 0 76
-0.127512 0.021692 0.180598 127 0 127
0.115461 0.009608 -0.687048 153 0 76
-0.049732 -0.001701 0.223604 127 0 127
0.295911 0.013170 -0.700791 153 0 76
0.256059 -0.071912 -0.375814 153 0 76
-0.658496 0.021692 -0.368888 127 0 127
-0.244951 -0.001701 -0.056706 127 0 127
-0.420428 0.021692 -0.139646 127 0 127
0.434988 0.038952 0.515082 0 127 127
0.183599 -0.071912 -0.817407 153 0 76
-0.018535 -0.001701 0.272245 127 0 127
-0.596928 0.021692 -0.145541 127 0 127
0.258575 -0.071912 -0.448033 153 0 76
0.187595 0.009896 0.717919 0 127 127
0.343388 0.045055 -0.731682 153 0 76
0.123748 -0.048457 0.524364 0 127 127
0.069701 0.045055 -0.339694 153 0 76
-0.266698 -0.007880 -0.023408 127 127 0
-0.411744 -0.025095 0.142837 76 153 0
0.189569 0.068510 0.748919 0 127 127
0.096059 0.068510 0.491552 0 127 127
-0.026036 -0.025095 -0.342787 76 153 0
0.010688 0.021692 0.334792 127 0 127
