-0.559228 -0.028644 0.052884 0.000000 0.000000 1.000000
0.062415 0.004547 -0.028438 1.000000 0.000000 0.000000
-0.020517 0.033127 -0.056144 1.000000 0.000000 0.000000
-0.735732 -0.052279 0.022618 0.600000 0.000000 0.300000
0.187901 0.042639 0.094413 0.800000 0.200000 0.500000
0.163408 0.003301 0.263822 0.800000 0.200000 0.500000
0.398722 0.037447 -0.112975 1.000000 0.000000 0.000000
-0.158897 0.001604 -0.132179 1.000000 0.000000 0.000000
-0.043817 -0.003556 0.227161 0.800000 0.200000 0.500000
0.320800 0.046442 0.061273 0.800000 0.200000 0.500000
0.183860 0.028224 0.289384 0.800000 0.200000 0.500000
0.122009 0.014373 -0.073271 1.000000 0.000000 0.000000
-0.255261 -0.029594 -0.019537 0.800000 0.200000 0.500000
-0.115069 -0.031037 -0.157163 1.000000 0.000000 0.000000
0.446825 0.039872 -0.184177 1.000000 0.000000 0.000000
0.040126 -0.007185 0.029114 0.800000 0.200000 0.500000
0.437462 0.059855 -0.104688 1.000000 0.000000 0.000000
0.457236 0.026481 0.100881 0.800000 0.200000 0.500000
0.064116 -0.003150 0.262393 0.800000 0.200000 0.500000
-0.050532 -0.021274 -0.117473 1.000000 0.000000 0.000000
-0.091394 -0.010363 0.180410 0.800000 0.200000 0.500000
-0.770525 -0.049088 -0.023528 0.000000 0.000000 1.000000
-0.016809 -0.023718 -0.258386 1.000000 0.000000 0.000000
-0.161732 -0.030213 -0.121112 1.000000 0.000000 0.000000
0.054738 0.038687 -0.275762 1.000000 0.000000 0.000000
-0.103183 -0.000692 0.127188 0.800000 0.200000 0.500000
0.160157 0.005397 0.096357 0.800000 0.200000 0.500000
0.361658 0.042868 -0.072515 1.000000 0.000000 0.000000
0.203552 0.008535 -0.265893 1.000000 0.000000 0.000000
0.346983 0.036111 0.283110 0.800000 0.200000 0.500000
0.031514 0.001752 -0.237283 1.000000 0.000000 0.000000
0.376058 0.049505 0.059615 0.800000 0.200000 0.500000
0.395805 0.053572 -0.036717 1.000000 0.000000 0.000000
0.164872 0.050736 -0.278676 1.000000 0.000000 0.000000
0.429429 0.045392 0.052111 0.800000 0.200000 0.500000
0.453142 0.045625 0.145645 0.800000 0.200000 0.500000
0.247135 0.051129 -0.070286 1.000000 0.000000 0.000000
-0.489987 -0.042178 -0.006474 0.600000 0.000000 0.300000
0.086994 0.006257 -0.266947 1.000000 0.000000 0.000000
-0.301294 -0.014379 0.008855 0.000000 0.000000 1.000000
0.336175 -0.001165 0.286528 0.800000 0.200000 0.500000
0.433225 -0.000784 -0.150424 1.000000 0.000000 0.000000
-0.836565 -0.060922 -0.020592 0.600000 0.000000 0.300000
0.011931 -0.002598 0.244757 0.800000 0.200000 0.500000
-0.053751 -0.019870 0.119013 0.800000 0.200000 0.500000
-1.002713 -0.057059 0.012866 0.000000 0.000000 1.000000
-0.138657 0.021104 0.158027 0.800000 0.200000 0.500000
-0.600152 -0.031130 -0.005905 0.000000 0.000000 1.000000
0.267114 0.042628 0.043980 0.800000 0.200000 0.500000
0.385642 0.056590 0.255955 0.800000 0.200000 0.500000
-0.027423 -0.024871 -0.209069 1.000000 0.000000 0.000000
-0.030849 0.012477 -0.111730 1.000000 0.000000 0.000000
0.418716 -0.005254 -0.183893 1.000000 0.000000 0.000000
0.451694 -0.007013 0.117349 0.800000 0.200000 0.500000
0.237701 0.009066 -0.069938 1.000000 0.000000 0.000000
-0.057189 0.018858 -0.235919 1.000000 0.000000 0.000000
0.063197 0.039170 0.255487 0.800000 0.200000 0.500000
0.252335 -0.002567 0.310370 0.800000 0.200000 0.500000
0.168604 0.012815 -0.286145 1.000000 0.000000 0.000000
-0.068000 0.032294 -0.096423 1.000000 0.000000 0.000000
-0.210272 -0.027114 0.035474 0.800000 0.200000 0.500000
-0.073370 -0.035492 0.090563 0.800000 0.200000 0.500000
0.014087 0.028760 0.055852 0.800000 0.200000 0.500000
0.189213 0.013034 -0.093950 1.000000 0.000000 0.000000
-0.116176 -0.002306 -0.061314 1.000000 0.000000 0.000000
-0.453894 -0.040413 -0.027500 0.600000 0.000000 0.300000
0.152610 -0.020425 -0.275287 1.000000 0.000000 0.000000
0.108542 -0.026898 0.277311 0.800000 0.200000 0.500000
-0.088485 0.031111 -0.198032 1.000000 0.000000 0.000000
0.270449 0.008231 -0.091963 1.000000 0.000000 0.000000
0.211799 0.018948 0.095080 0.800000 0.200000 0.500000
-0.311624 -0.015011 -0.021213 0.000000 0.000000 1.000000
0.015161 0.002159 -0.053716 1.000000 0.000000 0.000000
0.343522 -0.005459 -0.068789 1.000000 0.000000 0.000000
-0.603130 -0.037164 -0.034030 0.000000 0.000000 1.000000
0.206105 0.013948 -0.038568 1.000000 0.000000 0.000000
-0.029717 -0.005591 0.253702 0.800000 0.200000 0.500000
-0.154704 -0.013755 0.058605 0.800000 0.200000 0.500000
0.321844 0.014695 0.093748 0.800000 0.200000 0.500000
0.056329 -0.021489 -0.281985 1.000000 0.000000 0.000000
-0.137599 0.021778 0.095445 0.800000 0.200000 0.500000
-0.230510 -0.010919 -0.075087 1.000000 0.000000 0.000000
0.134961 0.042277 -0.298443 1.000000 0.000000 0.000000
0.098238 0.040062 0.079202 0.800000 0.200000 0.500000
0.380051 0.050150 0.295326 0.800000 0.200000 0.500000
0.277663 0.036419 0.269108 0.800000 0.200000 0.500000
0.198436 -0.022289 0.288635 0.800000 0.200000 0.500000
-0.476156 -0.041416 0.018513 0.600000 0.000000 0.300000
0.405077 0.028806 0.252943 0.800000 0.200000 0.500000
0.135529 0.015674 -0.013089 1.000000 0.000000 0.000000
0.337924 0.051315 0.093366 0.800000 0.200000 0.500000
0.043926 0.006220 -0.053037 1.000000 0.000000 0.000000
0.365488 -0.011178 0.039128 0.800000 0.200000 0.500000
-0.893596 -0.047229 0.021420 0.000000 0.000000 1.000000
0.405527 0.018021 0.040246 0.800000 0.200000 0.500000
0.021380 -0.004411 0.276585 0.800000 0.200000 0.500000
0.024336 -0.008948 0.081912 0.800000 0.200000 0.500000
0.402470 0.037338 -0.084648 1.000000 0.000000 0.000000
0.073581 0.007737 0.291002 0.800000 0.200000 0.500000
0.326441 0.044912 0.265531 0.800000 0.200000 0.500000
0.148209 -0.023619 0.051507 0.800000 0.200000 0.500000
-0.069276 -0.026873 -0.202148 1.000000 0.000000 0.000000
-0.656042 -0.041769 -0.001315 0.600000 0.000000 0.300000
0.441991 -0.007571 0.144322 0.800000 0.200000 0.500000
-0.578531 -0.046811 -0.048499 0.600000 0.000000 0.300000
0.072473 -0.002021 -0.076801 1.000000 0.000000 0.000000
0.288223 0.039256 -0.068848 1.000000 0.000000 0.000000
0.410210 -0.002451 -0.067597 1.000000 0.000000 0.000000
-0.769622 -0.040576 0.028605 0.000000 0.000000 1.000000
0.238914 0.008110 0.094705 0.800000 0.200000 0.500000
0.220589 0.016115 0.291550 0.800000 0.200000 0.500000
0.449863 0.019426 0.073940 0.800000 0.200000 0.500000
0.369336 -0.003229 -0.035887 1.000000 0.000000 0.000000
0.317397 0.025461 0.038498 0.800000 0.200000 0.500000
0.092911 -0.015810 -0.293499 1.000000 0.000000 0.000000
0.366546 0.028633 0.097930 0.800000 0.200000 0.500000
-0.276553 -0.030750 0.014565 0.600000 0.000000 0.300000
0.190546 -0.015267 -0.287210 1.000000 0.000000 0.000000
0.020576 -0.000981 -0.275119 1.000000 0.000000 0.000000
-0.027342 0.034302 0.225223 0.800000 0.200000 0.500000
-0.095936 0.002928 0.204500 0.800000 0.200000 0.500000
0.254608 0.030779 -0.290028 1.000000 0.000000 0.000000
0.318205 -0.014477 0.052076 0.800000 0.200000 0.500000
0.121313 -0.020579 -0.093911 1.000000 0.000000 0.000000
0.076884 0.026619 -0.076460 1.000000 0.000000 0.000000
0.047794 0.015391 -0.257453 1.000000 0.000000 0.000000
-0.684097 -0.035846 0.034336 0.000000 0.000000 1.000000
-0.012573 0.038255 -0.107797 1.000000 0.000000 0.000000
-0.029223 0.002322 0.111770 0.800000 0.200000 0.500000
0.398031 0.037451 -0.245862 1.000000 0.000000 0.000000
-0.074411 0.005233 0.127937 0.800000 0.200000 0.500000
-0.102969 -0.030192 -0.091654 1.000000 0.000000 0.000000
0.028141 0.037356 0.250056 0.800000 0.200000 0.500000
-0.873177 -0.053823 -0.021885 0.600000 0.000000 0.300000
-0.138328 -0.033988 0.157910 0.800000 0.200000 0.500000
0.402264 0.015548 -0.289618 1.000000 0.000000 0.000000
-0.364235 -0.035610 -0.037900 0.600000 0.000000 0.300000
0.404869 0.055121 0.128262 0.800000 0.200000 0.500000
-0.082038 0.010804 -0.106317 1.000000 0.000000 0.000000
0.397149 -0.007145 -0.240275 1.000000 0.000000 0.000000
0.186118 -0.014469 -0.063306 1.000000 0.000000 0.000000
-0.681764 -0.043218 -0.053669 0.600000 0.000000 0.300000
0.386667 -0.010750 0.065253 0.800000 0.200000 0.500000
-0.026516 0.034369 -0.237067 1.000000 0.000000 0.000000
0.343492 0.014620 0.309998 0.800000 0.200000 0.500000
0.275816 0.044598 0.295817 0.800000 0.200000 0.500000
0.067633 0.005156 0.053036 0.800000 0.200000 0.500000
0.259158 0.009977 0.286992 0.800000 0.200000 0.500000
-0.054125 0.015270 -0.208498 1.000000 0.000000 0.000000
0.281585 0.031860 0.093599 0.800000 0.200000 0.500000
-0.586679 -0.030796 0.033740 0.000000 0.000000 1.000000
0.149791 -0.020160 -0.082375 1.000000 0.000000 0.000000
-0.105766 0.005869 0.162442 0.800000 0.200000 0.500000
0.147312 0.036927 0.282631 0.800000 0.200000 0.500000
0.392064 -0.006305 -0.099774 1.000000 0.000000 0.000000
-0.056920 0.006758 -0.056733 1.000000 0.000000 0.000000
-0.056598 0.017904 -0.119354 1.000000 0.000000 0.000000
-0.145328 0.016847 0.066884 0.800000 0.200000 0.500000
-0.283624 -0.020564 0.061410 0.600000 0.000000 0.300000
0.127576 0.001494 0.097307 0.800000 0.200000 0.500000
0.351536 -0.012880 0.094813 0.800000 0.200000 0.500000
-0.152781 -0.010178 -0.105292 1.000000 0.000000 0.000000
0.413285 0.049616 -0.178405 1.000000 0.000000 0.000000
-0.074073 -0.013879 -0.128566 1.000000 0.000000 0.000000
0.172037 -0.015087 -0.023140 1.000000 0.000000 0.000000
0.330870 0.011824 -0.285157 1.000000 0.000000 0.000000
0.015686 -0.027789 -0.245027 1.000000 0.000000 0.000000
-0.040311 0.002564 0.200462 0.800000 0.200000 0.500000
0.298920 0.024051 -0.308606 1.000000 0.000000 0.000000
-0.210318 -0.019905 -0.050958 1.000000 0.000000 0.000000
0.317019 0.030737 0.288503 0.800000 0.200000 0.500000
0.108823 0.041469 -0.291024 1.000000 0.000000 0.000000
0.409963 -0.010455 0.247336 0.800000 0.200000 0.500000
-0.702163 -0.044573 -0.029955 0.000000 0.000000 1.000000
0.445455 0.019136 0.194504 0.800000 0.200000 0.500000
-0.555417 -0.035321 -0.037670 0.000000 0.000000 1.000000
0.432912 0.052185 -0.229441 1.000000 0.000000 0.000000
0.396106 -0.012166 0.107518 0.800000 0.200000 0.500000
-0.431646 -0.038532 0.051017 0.600000 0.000000 0.300000
0.044944 0.026272 -0.101783 1.000000 0.000000 0.000000
-0.429642 -0.021735 -0.025065 0.000000 0.000000 1.000000
0.111589 0.014055 0.075010 0.800000 0.200000 0.500000
0.382268 0.033060 -0.302729 1.000000 0.000000 0.000000
0.245597 0.044747 0.093921 0.800000 0.200000 0.500000
-0.509644 -0.028435 -0.028552 0.000000 0.000000 1.000000
-0.124818 -0.011945 -0.025940 1.000000 0.000000 0.000000
0.314745 0.007766 -0.068761 1.000000 0.000000 0.000000
0.018668 -0.029940 0.269557 0.800000 0.200000 0.500000
0.422618 -0.012127 0.166418 0.800000 0.200000 0.500000
0.114948 0.009894 -0.273171 1.000000 0.000000 0.000000
-0.071476 -0.032208 -0.176296 1.000000 0.000000 0.000000
-0.253850 -0.019020 0.069466 0.600000 0.000000 0.300000
-0.782412 -0.041726 -0.001097 0.000000 0.000000 1.000000
-0.265796 -0.022929 -0.061830 0.000000 0.000000 1.000000
0.142702 -0.000912 0.303191 0.800000 0.200000 0.500000
0.106119 -0.006081 -0.253753 1.000000 0.000000 0.000000
0.309115 0.051630 -0.090985 1.000000 0.000000 0.000000
-0.236379 -0.028528 0.032973 0.800000 0.200000 0.500000
-0.814579 -0.043022 0.023323 0.000000 0.000000 1.000000
-0.106915 0.012302 -0.155181 1.000000 0.000000 0.000000
0.036488 -0.002423 -0.102781 1.000000 0.000000 0.000000
0.385119 0.004706 0.304676 0.800000 0.200000 0.500000
0.364958 0.012370 -0.072723 1.000000 0.000000 0.000000
0.033523 0.015888 0.080801 0.800000 0.200000 0.500000
0.427735 -0.001420 -0.113498 1.000000 0.000000 0.000000
0.214944 0.021125 -0.093417 1.000000 0.000000 0.000000
-0.035255 -0.026767 -0.240254 1.000000 0.000000 0.000000
-0.349397 -0.034748 -0.013102 0.600000 0.000000 0.300000
0.046571 0.015751 0.265915 0.800000 0.200000 0.500000
0.027263 -0.022877 -0.060832 1.000000 0.000000 0.000000
0.302066 0.051787 -0.039269 1.000000 0.000000 0.000000
0.011801 0.042366 -0.249799 1.000000 0.000000 0.000000
0.185936 0.008443 0.095605 0.800000 0.200000 0.500000
0.024787 0.037444 -0.077981 1.000000 0.000000 0.000000
0.349131 0.017635 0.260728 0.800000 0.200000 0.500000
-0.182998 -0.022911 0.013755 0.800000 0.200000 0.500000
0.016394 0.013810 -0.104840 1.000000 0.000000 0.000000
0.145603 0.025916 -0.095433 1.000000 0.000000 0.000000
0.427728 0.024698 -0.148409 1.000000 0.000000 0.000000
-0.164179 -0.039662 0.094639 0.800000 0.200000 0.500000
-0.004568 -0.010508 -0.084458 1.000000 0.000000 0.000000
-0.141429 -0.038566 0.069073 0.800000 0.200000 0.500000
0.383253 0.038077 -0.266975 1.000000 0.000000 0.000000
0.171916 0.001424 0.288069 0.800000 0.200000 0.500000
0.052807 0.031984 0.070427 0.800000 0.200000 0.500000
0.413494 0.018454 0.275901 0.800000 0.200000 0.500000
0.424894 0.057363 0.215072 0.800000 0.200000 0.500000
0.134072 0.006299 0.016524 0.800000 0.200000 0.500000
-0.048641 0.032505 0.097853 0.800000 0.200000 0.500000
-0.742890 -0.039224 -0.000412 0.000000 0.000000 1.000000
0.197003 0.036587 -0.070852 1.000000 0.000000 0.000000
0.020822 0.027313 0.104515 0.800000 0.200000 0.500000
0.387048 0.052469 0.104143 0.800000 0.200000 0.500000
0.431391 -0.008226 0.068908 0.800000 0.200000 0.500000
0.404187 0.061484 -0.123628 1.000000 0.000000 0.000000
-0.124749 0.028791 -0.170891 1.000000 0.000000 0.000000
-0.652362 -0.041883 -0.035300 0.600000 0.000000 0.300000
0.162827 0.021441 0.073222 0.800000 0.200000 0.500000
-0.308904 -0.020545 -0.074678 0.000000 0.000000 1.000000
0.196051 0.044215 -0.036776 1.000000 0.000000 0.000000
0.355062 0.008733 -0.257004 1.000000 0.000000 0.000000
-0.217943 -0.017006 0.082116 0.600000 0.000000 0.300000
0.426242 0.052253 0.101811 0.800000 0.200000 0.500000
0.278224 -0.013448 -0.284336 1.000000 0.000000 0.000000
-0.320462 -0.015395 0.041899 0.000000 0.000000 1.000000
-0.393552 -0.019195 0.034957 0.000000 0.000000 1.000000
0.294670 0.005308 0.093545 0.800000 0.200000 0.500000
-0.068534 0.019460 0.229226 0.800000 0.200000 0.500000
0.420926 0.027727 0.231572 0.800000 0.200000 0.500000
0.238255 0.019037 -0.040421 1.000000 0.000000 0.000000
-0.347264 -0.017055 -0.041434 0.000000 0.000000 1.000000
0.354462 0.022818 -0.034843 1.000000 0.000000 0.000000
-0.094175 -0.036515 0.104942 0.800000 0.200000 0.500000
-0.020426 0.019640 0.087222 0.800000 0.200000 0.500000
-0.207056 -0.019812 -0.102835 1.000000 0.000000 0.000000
-0.582064 -0.046847 0.014783 0.600000 0.000000 0.300000
-0.132530 0.028865 -0.146860 1.000000 0.000000 0.000000
0.268988 -0.010061 -0.055610 1.000000 0.000000 0.000000
0.296874 0.044942 0.069012 0.800000 0.200000 0.500000
0.035938 0.033668 -0.053669 1.000000 0.000000 0.000000
-0.062219 0.030845 0.185056 0.800000 0.200000 0.500000
-0.126625 -0.014196 -0.171848 1.000000 0.000000 0.000000
0.226378 -0.019361 0.066224 0.800000 0.200000 0.500000
0.122788 0.000472 0.038316 0.800000 0.200000 0.500000
0.433003 0.019962 -0.050809 1.000000 0.000000 0.000000
0.414235 0.058661 -0.068489 1.000000 0.000000 0.000000
-0.082773 -0.006921 -0.154760 1.000000 0.000000 0.000000
-0.980926 -0.061286 -0.024981 0.600000 0.000000 0.300000
0.437530 0.016215 0.166096 0.800000 0.200000 0.500000
-0.394263 -0.025813 -0.017209 0.300000 0.000000 0.600000
0.400059 0.014599 -0.255824 1.000000 0.000000 0.000000
0.342323 0.016243 -0.092344 1.000000 0.000000 0.000000
0.187879 0.015119 0.024780 0.800000 0.200000 0.500000
0.081298 -0.029398 0.098161 0.800000 0.200000 0.500000
0.062328 -0.027580 0.266917 0.800000 0.200000 0.500000
0.158919 0.013706 -0.004133 1.000000 0.000000 0.000000
-0.354567 -0.034956 0.015395 0.600000 0.000000 0.300000
0.087872 -0.004978 0.275120 0.800000 0.200000 0.500000
0.049848 -0.010828 0.079345 0.800000 0.200000 0.500000
0.274278 0.013190 0.071071 0.800000 0.200000 0.500000
-0.733023 -0.054603 -0.056086 0.600000 0.000000 0.300000
-0.611053 -0.031662 0.041917 0.000000 0.000000 1.000000
-0.093965 0.029944 0.119855 0.800000 0.200000 0.500000
0.327172 0.000711 0.071382 0.800000 0.200000 0.500000
-0.027732 -0.033130 0.077777 0.800000 0.200000 0.500000
0.406559 0.010843 0.130123 0.800000 0.200000 0.500000
0.229350 0.041485 0.062456 0.800000 0.200000 0.500000
0.273891 0.042400 -0.267237 1.000000 0.000000 0.000000
-0.054197 -0.034131 0.226620 0.800000 0.200000 0.500000
0.020129 -0.012841 0.055390 0.800000 0.200000 0.500000
0.195851 0.024059 -0.288531 1.000000 0.000000 0.000000
-0.013165 -0.031690 0.244931 0.800000 0.200000 0.500000
0.211299 -0.011165 -0.306734 1.000000 0.000000 0.000000
0.163463 0.001580 -0.094774 1.000000 0.000000 0.000000
0.152008 -0.022561 0.284783 0.800000 0.200000 0.500000
-0.141760 0.003761 -0.066333 1.000000 0.000000 0.000000
0.366828 0.008591 0.075612 0.800000 0.200000 0.500000
-0.450108 -0.040113 0.015733 0.600000 0.000000 0.300000
-0.719931 -0.046918 0.043906 0.000000 0.000000 1.000000
0.072870 0.028538 -0.289827 1.000000 0.000000 0.000000
-0.190815 -0.014929 -0.012948 1.000000 0.000000 0.000000
0.175416 0.051131 -0.074294 1.000000 0.000000 0.000000
0.296996 -0.011128 -0.088904 1.000000 0.000000 0.000000
-0.010716 0.009042 -0.234627 1.000000 0.000000 0.000000
0.011235 0.020140 0.255673 0.800000 0.200000 0.500000
0.412418 0.046721 0.166634 0.800000 0.200000 0.500000
-0.126899 0.022429 0.122835 0.800000 0.200000 0.500000
-0.386041 -0.019294 -0.043196 0.000000 0.000000 1.000000
-0.063775 -0.009143 0.057331 0.800000 0.200000 0.500000
-0.177944 -0.014977 0.091146 0.800000 0.200000 0.500000
0.265793 -0.013809 0.041764 0.800000 0.200000 0.500000
0.229969 0.004305 0.042147 0.800000 0.200000 0.500000
-0.934749 -0.066095 -0.004851 0.600000 0.000000 0.300000
0.149606 0.023669 0.262251 0.800000 0.200000 0.500000
0.343801 0.054923 -0.053067 1.000000 0.000000 0.000000
0.071626 -0.006882 0.100623 0.800000 0.200000 0.500000
0.097336 0.010245 -0.074930 1.000000 0.000000 0.000000
-0.037940 -0.001277 -0.028001 1.000000 0.000000 0.000000
-0.032124 0.004047 -0.088938 1.000000 0.000000 0.000000
0.450996 0.024266 -0.072967 1.000000 0.000000 0.000000
0.269339 0.018182 -0.308610 1.000000 0.000000 0.000000
0.322840 0.011880 -0.035994 1.000000 0.000000 0.000000
-0.625465 -0.049247 0.005114 0.600000 0.000000 0.300000
-0.532386 -0.044400 -0.058312 0.600000 0.000000 0.300000
-0.048053 -0.003046 -0.223199 1.000000 0.000000 0.000000
0.008708 -0.006187 -0.228727 1.000000 0.000000 0.000000
-0.111214 0.030040 -0.113647 1.000000 0.000000 0.000000
0.126644 -0.017505 -0.057336 1.000000 0.000000 0.000000
-0.232178 -0.020931 -0.006421 0.000000 0.000000 1.000000
0.005475 -0.022081 -0.267587 1.000000 0.000000 0.000000
-0.816453 -0.059737 0.004413 0.600000 0.000000 0.300000
-0.002719 0.022654 0.107247 0.800000 0.200000 0.500000
0.297318 0.012089 0.039575 0.800000 0.200000 0.500000
-0.084681 0.021609 -0.153777 1.000000 0.000000 0.000000
-0.848000 -0.044568 0.026663 0.000000 0.000000 1.000000
-0.095253 -0.009973 -0.203624 1.000000 0.000000 0.000000
0.103105 0.026797 -0.046388 1.000000 0.000000 0.000000
-0.131355 -0.031162 -0.069161 1.000000 0.000000 0.000000
-0.271380 -0.012805 -0.007789 0.000000 0.000000 1.000000
0.121640 -0.024988 0.069011 0.800000 0.200000 0.500000
0.225615 0.043364 0.291325 0.800000 0.200000 0.500000
-0.070818 -0.017241 0.192137 0.800000 0.200000 0.500000
0.187353 -0.020735 0.021520 0.800000 0.200000 0.500000
-0.049187 -0.028314 -0.094584 1.000000 0.000000 0.000000
0.210798 0.025354 -0.307839 1.000000 0.000000 0.000000
0.139500 -0.016744 -0.036425 1.000000 0.000000 0.000000
0.376881 0.041043 0.271952 0.800000 0.200000 0.500000
0.425672 0.036161 0.193669 0.800000 0.200000 0.500000
-0.097952 -0.023070 0.139593 0.800000 0.200000 0.500000
-0.087437 -0.007604 -0.061241 1.000000 0.000000 0.000000
0.368235 0.060768 -0.271532 1.000000 0.000000 0.000000
0.239024 0.002208 -0.092774 1.000000 0.000000 0.000000
-0.316282 -0.032908 0.009591 0.600000 0.000000 0.300000
0.131607 0.024989 0.097014 0.800000 0.200000 0.500000
-0.024208 0.013139 0.240033 0.800000 0.200000 0.500000
-0.979306 -0.059002 0.000928 0.000000 0.000000 1.000000
0.190527 0.046043 0.273964 0.800000 0.200000 0.500000
0.239282 0.004252 -0.285324 1.000000 0.000000 0.000000
0.418202 0.064744 -0.151051 1.000000 0.000000 0.000000
-0.178805 -0.015391 0.063204 0.800000 0.200000 0.500000
0.387661 0.016566 -0.078257 1.000000 0.000000 0.000000
-0.327917 -0.033405 0.056503 0.600000 0.000000 0.300000
-0.463394 -0.023244 0.030930 0.000000 0.000000 1.000000
-0.511390 -0.026058 0.050925 0.000000 0.000000 1.000000
0.117544 -0.022382 -0.266596 1.000000 0.000000 0.000000
0.143523 0.023702 -0.283206 1.000000 0.000000 0.000000
0.182175 0.038871 0.059850 0.800000 0.200000 0.500000
-0.361897 -0.017739 0.048045 0.000000 0.000000 1.000000
0.099597 0.027333 -0.097695 1.000000 0.000000 0.000000
0.143602 0.002424 -0.072566 1.000000 0.000000 0.000000
0.140873 -0.001297 -0.282626 1.000000 0.000000 0.000000
-0.045489 0.026774 0.075210 0.800000 0.200000 0.500000
0.307983 -0.018195 0.075262 0.800000 0.200000 0.500000
0.376940 0.052368 -0.242695 1.000000 0.000000 0.000000
0.284169 0.010061 -0.038156 1.000000 0.000000 0.000000
-0.051455 -0.034460 0.076488 0.800000 0.200000 0.500000
-0.056640 -0.017720 0.095782 0.800000 0.200000 0.500000
0.241549 0.025712 0.287089 0.800000 0.200000 0.500000
0.243646 -0.004480 0.071767 0.800000 0.200000 0.500000
0.424846 0.038144 -0.197821 1.000000 0.000000 0.000000
0.058693 -0.020876 -0.079333 1.000000 0.000000 0.000000
-0.091271 0.024094 0.067438 0.800000 0.200000 0.500000
0.392386 -0.002855 -0.040143 1.000000 0.000000 0.000000
-0.476836 -0.024671 -0.022979 0.000000 0.000000 1.000000
-0.167911 -0.017617 -0.054412 1.000000 0.000000 0.000000
-0.082328 -0.029094 -0.080725 1.000000 0.000000 0.000000
0.423793 0.016232 0.205975 0.800000 0.200000 0.500000
0.111454 0.017380 0.279538 0.800000 0.200000 0.500000
-0.539184 -0.027818 0.011860 0.000000 0.000000 1.000000
-0.124678 -0.031434 -0.105388 1.000000 0.000000 0.000000
0.237909 0.000482 0.292091 0.800000 0.200000 0.500000
0.393172 0.011558 0.263204 0.800000 0.200000 0.500000
0.209262 -0.013257 -0.060864 1.000000 0.000000 0.000000
-0.355805 -0.034816 -0.061616 0.600000 0.000000 0.300000
0.419673 0.025103 -0.263198 1.000000 0.000000 0.000000
0.018118 0.020222 -0.246593 1.000000 0.000000 0.000000
0.233194 0.032544 -0.070074 1.000000 0.000000 0.000000
0.019270 -0.030567 0.074504 0.800000 0.200000 0.500000
0.105296 -0.015952 -0.047101 1.000000 0.000000 0.000000
0.428365 -0.000943 -0.244979 1.000000 0.000000 0.000000
0.411299 -0.009352 0.054509 0.800000 0.200000 0.500000
-0.027543 0.005779 0.055798 0.800000 0.200000 0.500000
0.391294 0.016659 0.106208 0.800000 0.200000 0.500000
0.195680 0.052426 -0.280545 1.000000 0.000000 0.000000
0.236337 0.021220 0.310132 0.800000 0.200000 0.500000
0.287883 0.006750 0.310704 0.800000 0.200000 0.500000
-0.087927 0.015880 0.143399 0.800000 0.200000 0.500000
0.039887 -0.003751 0.255502 0.800000 0.200000 0.500000
-0.097417 -0.021081 -0.170382 1.000000 0.000000 0.000000
-0.091281 -0.019799 0.207593 0.800000 0.200000 0.500000
0.125431 0.024201 0.028659 0.800000 0.200000 0.500000
0.136602 0.040273 -0.011473 1.000000 0.000000 0.000000
-0.395765 -0.037341 -0.054873 0.600000 0.000000 0.300000
-0.468018 -0.033147 -0.046354 0.000000 0.000000 1.000000
0.119166 0.042415 -0.053441 1.000000 0.000000 0.000000
0.068401 -0.024922 -0.254642 1.000000 0.000000 0.000000
0.189210 -0.005385 0.072553 0.800000 0.200000 0.500000
0.394596 0.016426 -0.226528 1.000000 0.000000 0.000000
0.010305 0.013206 -0.082658 1.000000 0.000000 0.000000
-0.267513 -0.012689 0.030903 0.000000 0.000000 1.000000
-0.321411 -0.033251 -0.054642 0.600000 0.000000 0.300000
0.159171 0.037655 0.031045 0.800000 0.200000 0.500000
0.000035 0.041315 -0.086138 1.000000 0.000000 0.000000
0.445444 0.019088 -0.195987 1.000000 0.000000 0.000000
-0.646405 -0.042893 0.039256 0.000000 0.000000 1.000000
0.313775 0.031447 -0.068761 1.000000 0.000000 0.000000
0.349724 0.046453 0.074340 0.800000 0.200000 0.500000
0.353097 0.022618 0.037290 0.800000 0.200000 0.500000
0.186364 0.024749 0.266632 0.800000 0.200000 0.500000
-0.551571 -0.044433 0.036579 0.600000 0.000000 0.300000
-0.027514 -0.020514 0.111649 0.800000 0.200000 0.500000
0.324606 0.013353 -0.308403 1.000000 0.000000 0.000000
0.361829 0.019402 -0.306909 1.000000 0.000000 0.000000
0.443450 0.051359 0.191299 0.800000 0.200000 0.500000
-0.056821 0.009338 -0.185247 1.000000 0.000000 0.000000
0.407081 0.056820 -0.203315 1.000000 0.000000 0.000000
-0.143543 -0.023490 0.039701 0.800000 0.200000 0.500000
0.403625 0.032110 -0.037333 1.000000 0.000000 0.000000
-0.396763 -0.037065 0.051980 0.600000 0.000000 0.300000
0.036485 0.041549 -0.261624 1.000000 0.000000 0.000000
0.135252 0.036210 0.047299 0.800000 0.200000 0.500000
0.215098 -0.006924 0.291122 0.800000 0.200000 0.500000
-0.565466 -0.029475 -0.014647 0.000000 0.000000 1.000000
-0.443360 -0.037626 -0.068986 0.600000 0.000000 0.300000
-0.392267 -0.036996 0.015857 0.600000 0.000000 0.300000
0.398073 0.013356 -0.110583 1.000000 0.000000 0.000000
-0.067311 0.032229 -0.217323 1.000000 0.000000 0.000000
0.317926 0.030512 -0.286407 1.000000 0.000000 0.000000
0.351897 0.047124 -0.279676 1.000000 0.000000 0.000000
0.327754 -0.005195 0.265785 0.800000 0.200000 0.500000
0.219058 -0.019095 0.043023 0.800000 0.200000 0.500000
0.310625 0.004811 0.289287 0.800000 0.200000 0.500000
-0.412371 -0.021057 -0.047205 0.000000 0.000000 1.000000
-0.249618 -0.021948 -0.090397 0.000000 0.000000 1.000000
-0.061199 -0.038208 0.189247 0.800000 0.200000 0.500000
-0.293939 -0.021377 -0.034633 0.600000 0.000000 0.300000
0.056731 -0.014924 0.053666 0.800000 0.200000 0.500000
0.412013 0.013544 -0.195098 1.000000 0.000000 0.000000
-0.537182 -0.027478 0.045344 0.000000 0.000000 1.000000
0.325836 0.032959 -0.091678 1.000000 0.000000 0.000000
0.117324 0.003237 -0.017885 1.000000 0.000000 0.000000
-0.100631 0.029597 0.164901 0.800000 0.200000 0.500000
0.257005 0.027375 0.269189 0.800000 0.200000 0.500000
-0.855375 -0.054435 -0.007795 0.000000 0.000000 1.000000
-0.012271 -0.016381 0.045924 0.800000 0.200000 0.500000
0.282057 0.028153 -0.091683 1.000000 0.000000 0.000000
-0.166529 -0.024599 -0.091855 1.000000 0.000000 0.000000
0.057778 -0.004523 -0.267279 1.000000 0.000000 0.000000
0.387392 0.049886 0.080257 0.800000 0.200000 0.500000
0.357957 0.049001 0.299363 0.800000 0.200000 0.500000
-0.144563 -0.039310 0.107558 0.800000 0.200000 0.500000
-0.812089 -0.059592 -0.029279 0.600000 0.000000 0.300000
0.164719 -0.005160 -0.071860 1.000000 0.000000 0.000000
-0.355845 -0.013084 -0.005663 0.300000 0.000000 0.600000
-0.915442 -0.048962 0.010224 0.000000 0.000000 1.000000
0.093959 0.039732 0.255627 0.800000 0.200000 0.500000
-0.204012 -0.016824 0.054379 0.800000 0.200000 0.500000
0.304036 0.035259 0.267409 0.800000 0.200000 0.500000
0.364604 -0.007443 0.278950 0.800000 0.200000 0.500000
0.273958 0.008683 -0.284866 1.000000 0.000000 0.000000
0.300518 0.006169 0.267801 0.800000 0.200000 0.500000
0.219608 -0.003236 0.094979 0.800000 0.200000 0.500000
0.131375 -0.004865 0.259628 0.800000 0.200000 0.500000
-0.115439 -0.020551 0.184689 0.800000 0.200000 0.500000
0.313179 -0.011780 -0.277969 1.000000 0.000000 0.000000
0.258307 0.050336 -0.091963 1.000000 0.000000 0.000000
0.061001 0.014553 0.245848 0.800000 0.200000 0.500000
0.226423 0.005193 -0.267134 1.000000 0.000000 0.000000
-0.046879 0.015225 0.116109 0.800000 0.200000 0.500000
-0.004444 0.002643 -0.107468 1.000000 0.000000 0.000000
0.433869 0.052750 0.166277 0.800000 0.200000 0.500000
-0.091426 -0.012455 -0.114658 1.000000 0.000000 0.000000
-0.523172 -0.043845 -0.013045 0.600000 0.000000 0.300000
0.104915 -0.003605 0.098507 0.800000 0.200000 0.500000
0.296361 -0.000733 -0.288455 1.000000 0.000000 0.000000
0.212233 0.002477 -0.289195 1.000000 0.000000 0.000000
0.014643 -0.027375 -0.089397 1.000000 0.000000 0.000000
-0.108822 -0.000773 0.060613 0.800000 0.200000 0.500000
0.132466 0.016151 -0.258483 1.000000 0.000000 0.000000
0.304000 0.040477 -0.265406 1.000000 0.000000 0.000000
0.179406 0.011705 0.307281 0.800000 0.200000 0.500000
0.215632 0.017205 0.268306 0.800000 0.200000 0.500000
-0.045668 -0.008013 0.037863 0.800000 0.200000 0.500000
0.216986 0.044470 -0.093109 1.000000 0.000000 0.000000
0.206442 0.040200 0.065806 0.800000 0.200000 0.500000
0.244476 0.023824 -0.308428 1.000000 0.000000 0.000000
-0.080921 0.014422 0.184161 0.800000 0.200000 0.500000
-0.076667 0.008818 0.103444 0.800000 0.200000 0.500000
0.236549 0.030017 -0.267552 1.000000 0.000000 0.000000
0.427990 0.045474 -0.155872 1.000000 0.000000 0.000000
0.097964 -0.025017 0.052238 0.800000 0.200000 0.500000
-0.431836 -0.039265 -0.038296 0.600000 0.000000 0.300000
0.422277 -0.001206 0.231564 0.800000 0.200000 0.500000
0.318236 0.028363 0.074153 0.800000 0.200000 0.500000
-0.613530 -0.040172 0.062091 0.000000 0.000000 1.000000
0.391229 0.007154 0.232601 0.800000 0.200000 0.500000
0.260891 -0.020887 0.089080 0.800000 0.200000 0.500000
0.056533 -0.013743 -0.100607 1.000000 0.000000 0.000000
0.162750 0.021271 0.282311 0.800000 0.200000 0.500000
0.428517 0.043644 0.128699 0.800000 0.200000 0.500000
0.006108 -0.022652 0.090224 0.800000 0.200000 0.500000
0.388126 0.056161 -0.294177 1.000000 0.000000 0.000000
0.154985 -0.016083 0.096363 0.800000 0.200000 0.500000
0.235606 0.043452 -0.285816 1.000000 0.000000 0.000000
0.041384 -0.005440 -0.282013 1.000000 0.000000 0.000000
0.041983 0.000195 0.283340 0.800000 0.200000 0.500000
0.456868 0.036254 -0.094013 1.000000 0.000000 0.000000
-0.243367 -0.011531 -0.026159 0.000000 0.000000 1.000000
-0.016943 0.009012 -0.260102 1.000000 0.000000 0.000000
0.441711 0.039680 -0.060501 1.000000 0.000000 0.000000
0.286550 -0.015939 0.069275 0.800000 0.200000 0.500000
-0.081376 -0.012710 -0.035221 1.000000 0.000000 0.000000
-0.055229 -0.013965 0.207097 0.800000 0.200000 0.500000
0.454493 0.003335 -0.153180 1.000000 0.000000 0.000000
0.436006 0.009855 -0.227541 1.000000 0.000000 0.000000
0.456861 0.033711 0.121479 0.800000 0.200000 0.500000
0.332614 0.043603 -0.262066 1.000000 0.000000 0.000000
-0.028501 0.027028 -0.209804 1.000000 0.000000 0.000000
-0.009198 -0.028787 -0.095568 1.000000 0.000000 0.000000
-0.179192 -0.025229 0.110363 0.800000 0.200000 0.500000
-0.029901 0.034473 -0.085592 1.000000 0.000000 0.000000
0.439039 -0.000885 -0.090299 1.000000 0.000000 0.000000
0.324166 0.051234 0.286470 0.800000 0.200000 0.500000
0.171719 0.044385 0.078156 0.800000 0.200000 0.500000
-0.812306 -0.043652 0.046965 0.000000 0.000000 1.000000
-0.543156 -0.028661 -0.017334 0.000000 0.000000 1.000000
0.325328 -0.000414 -0.263935 1.000000 0.000000 0.000000
-0.888544 -0.056306 -0.003334 0.000000 0.000000 1.000000
0.365141 0.035210 0.253023 0.800000 0.200000 0.500000
0.275921 -0.013269 -0.084097 1.000000 0.000000 0.000000
-0.009776 0.014334 -0.054717 1.000000 0.000000 0.000000
-0.313300 -0.015115 -0.042830 0.000000 0.000000 1.000000
-0.147282 -0.012893 -0.079406 1.000000 0.000000 0.000000
-0.515497 -0.034076 -0.049500 0.600000 0.000000 0.300000
-0.107440 -0.008435 -0.144185 1.000000 0.000000 0.000000
0.194661 -0.012971 -0.265770 1.000000 0.000000 0.000000
0.110008 -0.005074 0.279108 0.800000 0.200000 0.500000
0.451914 0.054399 -0.153990 1.000000 0.000000 0.000000
0.123166 0.046269 -0.074308 1.000000 0.000000 0.000000
-0.632662 -0.046159 -0.065155 0.600000 0.000000 0.300000
0.181769 0.045384 -0.020633 1.000000 0.000000 0.000000
0.199280 -0.008070 -0.093413 1.000000 0.000000 0.000000
-0.685956 -0.052610 -0.008828 0.600000 0.000000 0.300000
-0.101801 -0.018693 0.027415 0.800000 0.200000 0.500000
-0.330925 -0.015969 0.020856 0.000000 0.000000 1.000000
-0.023758 -0.012622 0.227489 0.800000 0.200000 0.500000
-0.167897 0.019358 0.106814 0.800000 0.200000 0.500000
0.169877 -0.009349 -0.285837 1.000000 0.000000 0.000000
-0.952948 -0.059227 -0.030503 0.600000 0.000000 0.300000
0.380568 0.043003 -0.082782 1.000000 0.000000 0.000000
0.279929 0.050310 -0.289264 1.000000 0.000000 0.000000
0.140901 -0.013424 0.074084 0.800000 0.200000 0.500000
-0.043770 -0.010891 -0.047742 1.000000 0.000000 0.000000
0.057141 0.045096 -0.255425 1.000000 0.000000 0.000000
-0.505206 -0.042864 0.022302 0.600000 0.000000 0.300000
-0.619527 -0.048995 -0.024519 0.600000 0.000000 0.300000
0.407201 0.044103 0.204494 0.800000 0.200000 0.500000
0.071638 0.020755 0.272188 0.800000 0.200000 0.500000
0.354360 0.036428 -0.093780 1.000000 0.000000 0.000000
0.221645 0.002473 0.309942 0.800000 0.200000 0.500000
-0.049495 -0.020791 -0.211264 1.000000 0.000000 0.000000
0.432305 -0.008281 0.094487 0.800000 0.200000 0.500000
0.103475 0.047431 -0.260317 1.000000 0.000000 0.000000
-0.613905 -0.032148 0.010663 0.000000 0.000000 1.000000
0.272698 -0.019738 0.286742 0.800000 0.200000 0.500000
-0.112621 0.027327 -0.188486 1.000000 0.000000 0.000000
-0.089523 -0.039822 0.149799 0.800000 0.200000 0.500000
0.231140 -0.010922 -0.073579 1.000000 0.000000 0.000000
0.418140 -0.004899 0.268342 0.800000 0.200000 0.500000
0.360596 -0.005673 -0.290417 1.000000 0.000000 0.000000
0.291568 -0.003923 0.285426 0.800000 0.200000 0.500000
-0.471177 -0.023469 0.061898 0.000000 0.000000 1.000000
-0.426289 -0.028845 0.011200 0.600000 0.000000 0.300000
0.413532 0.004711 0.157101 0.800000 0.200000 0.500000
0.409885 0.018641 0.094131 0.800000 0.200000 0.500000
-0.724022 -0.054671 0.003139 0.600000 0.000000 0.300000
0.099892 0.028457 0.296837 0.800000 0.200000 0.500000
0.429873 0.008212 -0.170136 1.000000 0.000000 0.000000
0.231242 0.027890 0.094692 0.800000 0.200000 0.500000
0.426940 0.053655 -0.122024 1.000000 0.000000 0.000000
0.089972 0.015444 0.076444 0.800000 0.200000 0.500000
-0.189034 -0.018847 -0.091765 1.000000 0.000000 0.000000
-0.015368 0.033035 0.244318 0.800000 0.200000 0.500000
-0.057517 0.013390 0.206347 0.800000 0.200000 0.500000
0.177121 0.018842 -0.305580 1.000000 0.000000 0.000000
0.377864 0.005872 0.037148 0.800000 0.200000 0.500000
-0.005744 -0.008811 -0.049914 1.000000 0.000000 0.000000
0.019244 0.014867 0.234076 0.800000 0.200000 0.500000
-0.000888 0.004162 0.267549 0.800000 0.200000 0.500000
-0.369993 -0.035633 0.055836 0.600000 0.000000 0.300000
0.069704 0.005662 -0.050601 1.000000 0.000000 0.000000
0.103002 -0.008712 -0.276364 1.000000 0.000000 0.000000
-0.071833 0.032368 -0.075660 1.000000 0.000000 0.000000
0.323969 0.045476 0.039600 0.800000 0.200000 0.500000
0.041903 -0.030738 0.262712 0.800000 0.200000 0.500000
0.062439 0.018489 0.101028 0.800000 0.200000 0.500000
-0.132655 -0.031907 -0.124856 1.000000 0.000000 0.000000
0.082991 -0.019983 -0.063884 1.000000 0.000000 0.000000
0.342156 -0.006901 0.309836 0.800000 0.200000 0.500000
0.146732 0.036691 0.074866 0.800000 0.200000 0.500000
0.101934 -0.027339 0.255557 0.800000 0.200000 0.500000
-0.492926 -0.042431 -0.057657 0.600000 0.000000 0.300000
0.369938 0.001075 0.251662 0.800000 0.200000 0.500000
0.173888 0.031113 -0.094425 1.000000 0.000000 0.000000
0.147288 0.044149 -0.041834 1.000000 0.000000 0.000000
0.213494 0.026984 -0.266524 1.000000 0.000000 0.000000
0.164886 -0.022866 0.022934 0.800000 0.200000 0.500000
-0.335382 -0.016694 -0.022474 0.000000 0.000000 1.000000
-0.089562 0.032234 -0.111446 1.000000 0.000000 0.000000
0.214214 -0.023729 0.083200 0.800000 0.200000 0.500000
-0.013549 0.037586 -0.219947 1.000000 0.000000 0.000000
-0.386007 -0.010432 -0.005706 0.300000 0.000000 0.600000
-0.525964 -0.043928 0.010440 0.600000 0.000000 0.300000
0.382990 0.012944 -0.267739 1.000000 0.000000 0.000000
0.326364 -0.006896 -0.056975 1.000000 0.000000 0.000000
0.428292 0.009992 0.186577 0.800000 0.200000 0.500000
0.056354 0.023185 -0.077920 1.000000 0.000000 0.000000
0.081177 0.029309 -0.051073 1.000000 0.000000 0.000000
-0.165305 0.018165 -0.120003 1.000000 0.000000 0.000000
0.170659 0.038801 0.301558 0.800000 0.200000 0.500000
0.131613 0.016662 0.301665 0.800000 0.200000 0.500000
0.114141 0.036322 0.097227 0.800000 0.200000 0.500000
-0.035339 0.014895 -0.232096 1.000000 0.000000 0.000000
0.369271 -0.015187 0.081979 0.800000 0.200000 0.500000
-0.790382 -0.058402 -0.028688 0.600000 0.000000 0.300000
-0.117994 -0.011648 0.044595 0.800000 0.200000 0.500000
0.016005 -0.007926 -0.082183 1.000000 0.000000 0.000000
-0.021429 -0.025213 -0.059268 1.000000 0.000000 0.000000
0.070572 -0.011501 0.077916 0.800000 0.200000 0.500000
0.246023 -0.008268 0.269402 0.800000 0.200000 0.500000
-0.572420 -0.045860 0.034487 0.600000 0.000000 0.300000
-0.234939 -0.028337 0.078443 0.600000 0.000000 0.300000
-0.069100 -0.011022 -0.171166 1.000000 0.000000 0.000000
0.093596 -0.010694 0.035371 0.800000 0.200000 0.500000
0.084277 -0.005324 -0.249955 1.000000 0.000000 0.000000
0.177621 0.019298 -0.264038 1.000000 0.000000 0.000000
0.103467 0.047965 -0.083763 1.000000 0.000000 0.000000
0.111160 -0.028959 0.093020 0.800000 0.200000 0.500000
-0.517860 -0.026839 0.029321 0.000000 0.000000 1.000000
-0.082876 -0.032595 -0.129612 1.000000 0.000000 0.000000
-0.001926 -0.015019 0.225596 0.800000 0.200000 0.500000
-0.029763 -0.018029 0.208433 0.800000 0.200000 0.500000
0.102827 0.007351 -0.034892 1.000000 0.000000 0.000000
-0.143413 -0.039134 0.131571 0.800000 0.200000 0.500000
0.231857 0.048759 -0.056539 1.000000 0.000000 0.000000
-0.200934 -0.009135 -0.034307 1.000000 0.000000 0.000000
0.343549 0.028507 -0.276435 1.000000 0.000000 0.000000
0.289196 0.050560 0.089232 0.800000 0.200000 0.500000
0.115576 -0.007132 0.081176 0.800000 0.200000 0.500000
-0.303703 -0.015450 0.053952 0.000000 0.000000 1.000000
0.097701 0.027961 -0.275906 1.000000 0.000000 0.000000
-0.152713 -0.019166 0.108291 0.800000 0.200000 0.500000
-0.284781 -0.023934 -0.069699 0.000000 0.000000 1.000000
-0.777577 -0.048741 -0.043456 0.600000 0.000000 0.300000
0.061746 -0.014791 0.287868 0.800000 0.200000 0.500000
0.430179 -0.001821 0.127162 0.800000 0.200000 0.500000
0.101003 -0.019701 -0.096838 1.000000 0.000000 0.000000
-0.072856 -0.001201 -0.200881 1.000000 0.000000 0.000000
-0.903585 -0.055497 -0.022287 0.600000 0.000000 0.300000
0.296079 0.003622 -0.308496 1.000000 0.000000 0.000000
0.181749 -0.025295 0.089726 0.800000 0.200000 0.500000
0.337960 0.030849 0.094519 0.800000 0.200000 0.500000
0.193158 -0.016794 0.307663 0.800000 0.200000 0.500000
-0.009161 0.001552 0.247685 0.800000 0.200000 0.500000
-0.411942 -0.020610 0.046635 0.000000 0.000000 1.000000
0.186735 -0.001342 -0.019395 1.000000 0.000000 0.000000
-0.318716 -0.033099 -0.014809 0.600000 0.000000 0.300000
-0.043768 0.022712 -0.098624 1.000000 0.000000 0.000000
-0.450705 -0.031779 0.047400 0.600000 0.000000 0.300000
0.249481 0.045958 -0.307813 1.000000 0.000000 0.000000
0.262669 0.001779 -0.074152 1.000000 0.000000 0.000000
0.139390 0.041649 0.262697 0.800000 0.200000 0.500000
0.337799 0.018239 0.279601 0.800000 0.200000 0.500000
-0.092125 -0.033339 0.177166 0.800000 0.200000 0.500000
0.416686 0.038450 -0.099217 1.000000 0.000000 0.000000
-0.071428 -0.038976 0.110551 0.800000 0.200000 0.500000
0.347591 0.053168 -0.305969 1.000000 0.000000 0.000000
0.181979 -0.011177 -0.305240 1.000000 0.000000 0.000000
0.115663 0.012791 0.256892 0.800000 0.200000 0.500000
0.315923 0.056977 -0.265684 1.000000 0.000000 0.000000
0.089989 -0.001640 0.252182 0.800000 0.200000 0.500000
0.387103 -0.010136 0.289932 0.800000 0.200000 0.500000
0.407598 0.057769 -0.245840 1.000000 0.000000 0.000000
-0.443527 -0.021919 0.000606 0.000000 0.000000 1.000000
-0.083651 -0.019609 -0.188525 1.000000 0.000000 0.000000
-0.413922 -0.020918 -0.012078 0.000000 0.000000 1.000000
0.170741 -0.000219 0.079256 0.800000 0.200000 0.500000
0.152311 -0.000158 0.280475 0.800000 0.200000 0.500000
0.339186 -0.013291 0.048097 0.800000 0.200000 0.500000
0.258638 0.024736 -0.092394 1.000000 0.000000 0.000000
0.145013 0.022672 -0.072494 1.000000 0.000000 0.000000
-0.341975 -0.016641 0.051753 0.000000 0.000000 1.000000
0.400353 -0.003312 -0.282382 1.000000 0.000000 0.000000
0.386475 0.035573 0.236424 0.800000 0.200000 0.500000
0.302158 -0.013879 0.308926 0.800000 0.200000 0.500000
-0.771101 -0.046126 0.051387 0.000000 0.000000 1.000000
0.422101 0.020417 -0.213642 1.000000 0.000000 0.000000
0.355060 0.061416 -0.077235 1.000000 0.000000 0.000000
-0.168390 0.001546 -0.098480 1.000000 0.000000 0.000000
0.273275 0.013816 0.269066 0.800000 0.200000 0.500000
0.152480 -0.001068 -0.260960 1.000000 0.000000 0.000000
0.374700 -0.005833 -0.248069 1.000000 0.000000 0.000000
-0.018658 -0.012800 -0.241473 1.000000 0.000000 0.000000
0.296987 0.017612 -0.265920 1.000000 0.000000 0.000000
-0.485884 -0.024762 0.012480 0.000000 0.000000 1.000000
0.095103 0.033963 0.057235 0.800000 0.200000 0.500000
0.391253 0.000052 0.082238 0.800000 0.200000 0.500000
0.281840 0.047541 -0.038792 1.000000 0.000000 0.000000
-0.229190 -0.018007 0.017316 0.800000 0.200000 0.500000
-0.183529 -0.018494 -0.069745 1.000000 0.000000 0.000000
-0.116420 -0.030407 -0.178175 1.000000 0.000000 0.000000
-0.052077 0.010668 0.056712 0.800000 0.200000 0.500000
-0.103532 0.016079 -0.060315 1.000000 0.000000 0.000000
0.175724 0.035963 -0.287087 1.000000 0.000000 0.000000
0.410876 0.037276 0.148885 0.800000 0.200000 0.500000
-0.247277 -0.021950 -0.070371 0.000000 0.000000 1.000000
0.148386 -0.005222 0.007413 0.800000 0.200000 0.500000
-0.119302 0.022875 0.168409 0.800000 0.200000 0.500000
0.292395 0.009612 -0.091386 1.000000 0.000000 0.000000
-0.387790 -0.036874 -0.033530 0.600000 0.000000 0.300000
0.127264 -0.007163 -0.079383 1.000000 0.000000 0.000000
0.070262 -0.008600 -0.288674 1.000000 0.000000 0.000000
0.110825 -0.016498 0.298303 0.800000 0.200000 0.500000
-0.068593 -0.005584 -0.227471 1.000000 0.000000 0.000000
-0.121304 0.004846 0.179638 0.800000 0.200000 0.500000
0.031752 0.030844 0.067473 0.800000 0.200000 0.500000
-0.116159 -0.014778 -0.044175 1.000000 0.000000 0.000000
-0.140605 0.000422 0.157897 0.800000 0.200000 0.500000
0.372035 0.027978 0.076694 0.800000 0.200000 0.500000
0.322061 0.013221 -0.091390 1.000000 0.000000 0.000000
0.045045 -0.005649 -0.084775 1.000000 0.000000 0.000000
0.388811 0.053406 -0.102453 1.000000 0.000000 0.000000
0.165660 0.038282 -0.262928 1.000000 0.000000 0.000000
-0.056587 -0.002266 -0.119788 1.000000 0.000000 0.000000
-0.253470 -0.029223 0.088724 0.600000 0.000000 0.300000
-0.488112 -0.041907 0.039634 0.600000 0.000000 0.300000
-0.723004 -0.037880 0.014075 0.000000 0.000000 1.000000
-0.105991 -0.013417 0.157014 0.800000 0.200000 0.500000
-0.575581 -0.030281 0.002627 0.000000 0.000000 1.000000
0.455748 0.046104 0.096193 0.800000 0.200000 0.500000
0.271529 0.056219 -0.071920 1.000000 0.000000 0.000000
-0.107482 0.023388 0.080689 0.800000 0.200000 0.500000
0.253206 0.005901 0.041819 0.800000 0.200000 0.500000
0.426345 0.025673 0.120178 0.800000 0.200000 0.500000
0.423672 0.059141 -0.086113 1.000000 0.000000 0.000000
0.271116 -0.005546 -0.267400 1.000000 0.000000 0.000000
0.122689 -0.027610 0.261545 0.800000 0.200000 0.500000
0.162501 0.034380 0.006977 0.800000 0.200000 0.500000
-0.409032 -0.037946 -0.002067 0.600000 0.000000 0.300000
0.362373 -0.004883 -0.062077 1.000000 0.000000 0.000000
-0.139115 -0.003314 0.065447 0.800000 0.200000 0.500000
0.455725 0.018258 -0.139966 1.000000 0.000000 0.000000
-0.194023 -0.015906 0.028857 0.800000 0.200000 0.500000
-0.075532 -0.018151 0.164256 0.800000 0.200000 0.500000
0.202356 0.010554 0.285667 0.800000 0.200000 0.500000
-0.076587 0.001359 0.198565 0.800000 0.200000 0.500000
-0.033461 -0.029977 -0.106691 1.000000 0.000000 0.000000
-0.098556 -0.039787 0.128801 0.800000 0.200000 0.500000
0.185283 0.003822 -0.071072 1.000000 0.000000 0.000000
0.246252 0.045236 0.072233 0.800000 0.200000 0.500000
0.338586 -0.015933 0.074539 0.800000 0.200000 0.500000
0.155295 0.017026 -0.303588 1.000000 0.000000 0.000000
0.197591 -0.020275 0.038519 0.800000 0.200000 0.500000
0.209870 0.032012 0.286419 0.800000 0.200000 0.500000
-0.669474 -0.051781 -0.040337 0.600000 0.000000 0.300000
0.455636 0.056591 -0.097365 1.000000 0.000000 0.000000
0.040698 0.023241 -0.282258 1.000000 0.000000 0.000000
0.257354 0.038705 0.291619 0.800000 0.200000 0.500000
0.414103 0.013182 -0.157064 1.000000 0.000000 0.000000
-0.314653 -0.032759 0.034294 0.600000 0.000000 0.300000
-0.356245 -0.034990 0.036907 0.600000 0.000000 0.300000
0.426108 0.030719 0.250513 0.800000 0.200000 0.500000
0.082703 0.045480 -0.252874 1.000000 0.000000 0.000000
0.043926 -0.017882 0.102806 0.800000 0.200000 0.500000
0.342821 0.054297 0.276469 0.800000 0.200000 0.500000
0.412172 -0.005933 -0.102133 1.000000 0.000000 0.000000
0.366623 0.056078 -0.058640 1.000000 0.000000 0.000000
0.413370 0.055922 -0.270192 1.000000 0.000000 0.000000
0.352284 0.006860 0.095738 0.800000 0.200000 0.500000
-0.150526 0.020829 -0.145317 1.000000 0.000000 0.000000
-0.157324 0.002331 0.072896 0.800000 0.200000 0.500000
0.062590 0.021904 -0.268875 1.000000 0.000000 0.000000
-0.293722 -0.027563 0.077007 0.600000 0.000000 0.300000
-0.263670 -0.030091 -0.001663 0.600000 0.000000 0.300000
-0.077191 -0.017935 0.130466 0.800000 0.200000 0.500000
0.431933 0.033432 -0.235565 1.000000 0.000000 0.000000
0.254016 0.030926 -0.039829 1.000000 0.000000 0.000000
-0.038820 0.014624 -0.055959 1.000000 0.000000 0.000000
-0.076172 0.004264 0.164817 0.800000 0.200000 0.500000
-0.105796 -0.023645 0.060570 0.800000 0.200000 0.500000
-0.465559 -0.040959 -0.011608 0.600000 0.000000 0.300000
0.298311 0.017901 -0.072772 1.000000 0.000000 0.000000
0.037290 -0.029072 0.082363 0.800000 0.200000 0.500000
-0.746642 -0.055951 -0.010149 0.600000 0.000000 0.300000
0.178545 -0.014823 -0.045112 1.000000 0.000000 0.000000
-0.628654 -0.047170 0.031867 0.600000 0.000000 0.300000
0.454378 0.003634 0.154757 0.800000 0.200000 0.500000
-0.752274 -0.048732 0.033009 0.000000 0.000000 1.000000
-0.055855 0.039087 -0.200446 1.000000 0.000000 0.000000
0.020075 -0.016761 0.233857 0.800000 0.200000 0.500000
0.458231 0.006324 0.100136 0.800000 0.200000 0.500000
0.273820 0.025177 0.291651 0.800000 0.200000 0.500000
0.421366 -0.012241 0.208835 0.800000 0.200000 0.500000
0.303079 0.025185 0.093474 0.800000 0.200000 0.500000
-0.496936 -0.025174 -0.013325 0.000000 0.000000 1.000000
-0.149743 0.027995 -0.098987 1.000000 0.000000 0.000000
0.179599 -0.022003 0.060953 0.800000 0.200000 0.500000
0.407024 0.056074 0.096194 0.800000 0.200000 0.500000
-0.083977 0.000376 0.058799 0.800000 0.200000 0.500000
0.356899 0.030103 -0.255443 1.000000 0.000000 0.000000
0.428034 0.034414 0.162657 0.800000 0.200000 0.500000
0.146521 0.048010 -0.262107 1.000000 0.000000 0.000000
0.277918 0.044156 0.060221 0.800000 0.200000 0.500000
0.255398 0.035260 -0.267385 1.000000 0.000000 0.000000
0.250509 0.024585 0.094412 0.800000 0.200000 0.500000
-0.284332 -0.013444 0.019201 0.000000 0.000000 1.000000
-0.604654 -0.048108 0.002629 0.600000 0.000000 0.300000
-0.585934 -0.038857 -0.066219 0.600000 0.000000 0.300000
-0.278447 -0.030935 -0.043320 0.600000 0.000000 0.300000
0.160844 0.044862 -0.062851 1.000000 0.000000 0.000000
-0.704610 -0.053601 0.001707 0.600000 0.000000 0.300000
-0.660113 -0.051216 -0.020050 0.600000 0.000000 0.300000
-0.101594 0.014298 -0.199189 1.000000 0.000000 0.000000
0.392058 0.062728 -0.083914 1.000000 0.000000 0.000000
0.120416 0.031859 -0.274354 1.000000 0.000000 0.000000
-0.031263 -0.032616 0.227290 0.800000 0.200000 0.500000
-0.008746 0.041425 -0.240710 1.000000 0.000000 0.000000
-0.100168 -0.029437 -0.140714 1.000000 0.000000 0.000000
0.046696 0.035552 0.265149 0.800000 0.200000 0.500000
-0.119852 -0.037752 0.067711 0.800000 0.200000 0.500000
-0.753751 -0.039566 0.015910 0.000000 0.000000 1.000000
-0.089797 0.024265 0.100253 0.800000 0.200000 0.500000
-0.165077 -0.007579 -0.038020 1.000000 0.000000 0.000000
-0.674354 -0.051920 0.009874 0.600000 0.000000 0.300000
-0.414478 -0.020774 0.025853 0.000000 0.000000 1.000000
-0.027076 -0.008100 -0.224661 1.000000 0.000000 0.000000
0.438123 0.059525 -0.068008 1.000000 0.000000 0.000000
0.419517 0.047991 -0.216084 1.000000 0.000000 0.000000
0.343035 -0.007780 -0.090906 1.000000 0.000000 0.000000
0.046063 0.034870 0.243146 0.800000 0.200000 0.500000
-0.073056 -0.019674 0.043680 0.800000 0.200000 0.500000
0.458376 0.015453 -0.118248 1.000000 0.000000 0.000000
0.190049 0.004810 -0.288101 1.000000 0.000000 0.000000
0.046559 -0.016348 -0.053280 1.000000 0.000000 0.000000
0.237605 0.052216 -0.092009 1.000000 0.000000 0.000000
0.440253 0.059632 -0.186208 1.000000 0.000000 0.000000
