ply
format ascii 1.0
element vertex 1267
property float x
property float y
property float z
property uchar red
property uchar green
property uchar blue
end_header
-0.082476 -0.002392 -0.179354 255 0 0
0.433873 0.013578 -0.233015 255 0 0
0.249011 0.037205 -0.285311 255 0 0
0.068902 0.008500 0.052916 204 51 127
0.325624 0.022928 -0.068915 255 0 0
-0.093754 0.006051 -0.128902 255 0 0
0.377542 -0.004546 -0.297808 255 0 0
0.388719 0.048580 0.264662 204 51 127
0.390360 0.039432 0.082624 204 51 127
0.158454 0.044753 -0.041268 255 0 0
0.145648 -0.004990 -0.301941 255 0 0
0.454599 0.015659 -0.150697 255 0 0
0.144135 0.000644 -0.277616 255 0 0
0.145280 0.049817 -0.090937 255 0 0
-0.938193 -0.065324 -0.000626 153 0 76
-0.378094 -0.026825 0.052637 153 0 76
0.212972 0.053797 -0.076886 255 0 0
0.406983 0.034276 -0.282989 255 0 0
0.287355 0.034671 -0.266696 255 0 0
-0.457711 -0.032706 0.026497 153 0 76
-0.040704 -0.002938 0.098423 204 51 127
0.330619 -0.010511 -0.267923 255 0 0
0.353395 0.033943 -0.274587 255 0 0
0.314950 0.021043 -0.286751 255 0 0
0.197026 0.021219 -0.306906 255 0 0
-0.392975 -0.032931 0.058247 0 0 255
0.214209 -0.013462 -0.292497 255 0 0
-0.167058 -0.006774 0.112682 204 51 127
0.120648 0.000907 0.097511 204 51 127
0.394279 0.005490 -0.227741 255 0 0
0.136651 0.035386 0.014651 204 51 127
0.362125 0.054802 0.275406 204 51 127
-0.332872 -0.016956 0.051514 0 0 255
0.455215 0.000715 -0.139617 255 0 0
0.305477 -0.006816 -0.307327 255 0 0
-0.496470 -0.026075 0.009642 0 0 255
0.370375 0.012404 -0.095726 255 0 0
0.400614 0.042149 0.291067 204 51 127
-0.464227 -0.031787 -0.055658 153 0 76
0.267927 -0.009654 -0.043470 255 0 0
0.441839 0.060026 -0.101560 255 0 0
-0.065246 0.020359 -0.198396 255 0 0
0.033571 -0.007588 0.103808 204 51 127
-0.052290 -0.012564 0.189228 204 51 127
0.056006 0.037739 -0.054149 255 0 0
0.400983 0.026389 0.218037 204 51 127
-0.775974 -0.049321 -0.043688 153 0 76
0.026381 -0.008351 -0.277263 255 0 0
0.445605 0.053360 0.152488 204 51 127
-0.082953 -0.004088 0.135371 204 51 127
-0.301981 -0.031026 0.002093 153 0 76
0.062365 -0.031924 0.089635 204 51 127
-0.036863 0.033753 0.219952 204 51 127
0.390095 -0.010095 0.279185 204 51 127
0.295697 0.023547 0.284784 204 51 127
0.031548 0.018085 -0.237684 255 0 0
0.340400 -0.016237 0.091274 204 51 127
-0.028114 0.017275 0.088497 204 51 127
0.262561 -0.005231 -0.091931 255 0 0
0.157084 -0.026321 0.273111 204 51 127
0.066658 0.002925 -0.100047 255 0 0
-0.480695 -0.030335 -0.039330 0 0 255
0.003912 -0.012153 0.057248 204 51 127
0.129778 0.035823 0.044756 204 51 127
0.269738 0.050292 -0.295536 255 0 0
0.337679 0.025328 0.279541 204 51 127
0.415007 0.003510 -0.183310 255 0 0
0.370898 -0.014659 0.269371 204 51 127
0.419706 -0.002262 -0.249053 255 0 0
0.009470 -0.025477 0.243763 204 51 127
-0.142110 0.028430 -0.083490 255 0 0
-0.156830 -0.015537 -0.133749 255 0 0
-0.064119 -0.031901 -0.197434 255 0 0
0.166202 0.011302 0.079346 204 51 127
0.455398 0.054069 -0.089295 255 0 0
-0.135311 0.002872 0.064457 204 51 127
0.367703 0.045254 -0.305811 255 0 0
-0.138084 0.028514 -0.146052 255 0 0
0.200379 -0.004732 -0.036289 255 0 0
-0.621621 -0.033305 -0.000836 0 0 255
0.405801 0.028198 -0.207796 255 0 0
-0.064435 0.021550 -0.057272 255 0 0
0.320897 0.027246 0.282243 204 51 127
0.153480 -0.026886 0.080968 204 51 127
0.124825 0.030281 0.029654 204 51 127
-0.267924 -0.029241 -0.034958 153 0 76
0.052530 0.007229 0.285945 204 51 127
0.007931 -0.029625 0.268716 204 51 127
0.191015 0.006044 0.289861 204 51 127
-0.003344 0.007052 -0.249080 255 0 0
-0.075950 -0.004845 0.222054 204 51 127
-0.013554 0.000066 -0.047590 255 0 0
0.197550 0.045757 -0.288326 255 0 0
-0.064021 0.024883 0.058992 204 51 127
-0.031518 -0.033379 0.076054 204 51 127
0.134593 -0.021339 -0.274807 255 0 0
-0.045546 0.020365 -0.243359 255 0 0
0.021897 -0.011056 0.056502 204 51 127
-0.081799 -0.009911 -0.191764 255 0 0
0.242078 0.048342 0.078406 204 51 127
-0.278992 -0.014074 0.038842 0 0 255
-0.302760 -0.015343 0.044570 0 0 255
0.375794 0.022950 -0.244472 255 0 0
0.425318 0.052230 0.093531 204 51 127
0.264601 0.019341 0.094131 204 51 127
0.437854 0.037331 -0.178301 255 0 0
-0.032775 -0.016380 0.041034 204 51 127
0.122288 -0.020524 0.036664 204 51 127
0.186874 0.033715 0.289497 204 51 127
0.083786 -0.016384 0.251058 204 51 127
0.351283 0.000153 -0.307066 255 0 0
-0.884269 -0.062457 -0.035639 153 0 76
0.411111 0.002507 0.094692 204 51 127
-0.108724 0.028046 -0.146924 255 0 0
-0.068587 -0.028757 0.172111 204 51 127
-0.059028 -0.026435 0.233967 204 51 127
0.315114 0.015993 -0.091216 255 0 0
0.249487 0.049145 -0.092259 255 0 0
0.234982 0.028527 0.287164 204 51 127
-0.651950 -0.042078 0.037047 0 0 255
0.245874 0.025195 -0.040288 255 0 0
0.380598 0.050245 0.290329 204 51 127
0.453843 -0.006777 0.100134 204 51 127
-0.600184 -0.039229 0.037628 0 0 255
0.004931 0.036496 -0.068365 255 0 0
-0.104236 -0.002121 0.196829 204 51 127
0.422916 0.010589 -0.105331 255 0 0
-0.167281 -0.008255 -0.052938 255 0 0
-0.626199 -0.033473 0.031904 0 0 255
0.258411 0.008710 0.269185 204 51 127
0.159112 -0.018435 0.096125 204 51 127
-0.601647 -0.032891 0.063443 0 0 255
0.130552 -0.010012 0.080580 204 51 127
0.427008 0.019600 0.149522 204 51 127
0.296340 0.030555 -0.308624 255 0 0
-0.019707 0.031200 -0.055599 255 0 0
0.241319 0.021652 0.076887 204 51 127
0.031755 0.028421 -0.053442 255 0 0
0.284509 0.051093 0.274821 204 51 127
-0.546344 -0.030460 -0.022083 0 0 255
-0.107377 -0.020415 0.037041 204 51 127
-0.553983 -0.044337 -0.033223 153 0 76
-0.299769 -0.031008 -0.044082 153 0 76
-0.007471 0.015579 -0.107847 255 0 0
-0.223423 -0.011195 -0.012549 255 0 0
-0.098272 0.030187 0.161945 204 51 127
0.216131 0.026681 -0.289566 255 0 0
0.310611 -0.014293 0.299806 204 51 127
0.262845 0.054276 -0.268730 255 0 0
0.180102 -0.025297 0.078258 204 51 127
0.040440 -0.006475 -0.102358 255 0 0
-0.059707 0.032985 -0.083430 255 0 0
0.068794 0.036576 0.248969 204 51 127
-0.013430 0.035473 -0.077585 255 0 0
-0.201708 -0.018267 -0.033039 255 0 0
-0.054582 0.028455 -0.209287 255 0 0
-0.565278 -0.030129 0.014709 0 0 255
-0.811425 -0.058354 0.000816 153 0 76
0.112903 0.026415 0.279806 204 51 127
0.380878 -0.007573 -0.265163 255 0 0
0.118818 0.008215 -0.079848 255 0 0
0.144724 -0.023267 0.011872 204 51 127
-0.159502 -0.016078 -0.076471 255 0 0
-0.100658 -0.021697 -0.060247 255 0 0
0.384352 0.040511 -0.034474 255 0 0
-0.183665 -0.024487 0.056921 204 51 127
-0.798393 -0.057532 0.017168 153 0 76
0.234684 0.026640 -0.308346 255 0 0
0.028103 -0.026818 -0.240897 255 0 0
0.405857 0.007620 0.253212 204 51 127
0.130798 -0.012224 0.282754 204 51 127
0.296568 0.024624 0.039547 204 51 127
0.089969 -0.014275 0.268858 204 51 127
-0.335933 -0.032780 0.034795 153 0 76
-0.033674 -0.026418 -0.073546 255 0 0
0.363435 0.038689 0.075266 204 51 127
0.273804 -0.020021 0.281134 204 51 127
0.351270 0.046994 -0.035062 255 0 0
-0.109766 0.008257 0.138585 204 51 127
0.392827 0.040570 -0.260606 255 0 0
0.101126 0.038568 -0.295347 255 0 0
-0.346054 -0.030909 0.065241 153 0 76
0.365134 -0.004604 0.097366 204 51 127
-0.742835 -0.039874 0.051916 0 0 255
-0.058946 -0.034766 0.069803 204 51 127
-0.082795 -0.004862 0.180050 204 51 127
0.446173 0.053361 0.124496 204 51 127
0.398890 -0.002628 0.294557 204 51 127
0.425334 0.046091 -0.116531 255 0 0
-0.034507 0.003434 -0.220773 255 0 0
0.370620 0.053249 -0.247826 255 0 0
0.086737 0.003278 0.294113 204 51 127
-0.097695 -0.022958 0.201659 204 51 127
-0.325411 -0.032404 -0.054146 153 0 76
0.051355 -0.003263 0.259178 204 51 127
-0.685624 -0.044255 -0.002746 153 0 76
0.448547 0.055560 -0.170566 255 0 0
0.197240 -0.004067 -0.093637 255 0 0
0.068107 -0.011003 0.035187 204 51 127
0.056546 0.004836 -0.243501 255 0 0
-0.473492 -0.032807 -0.007373 153 0 76
0.022680 0.019900 0.081906 204 51 127
0.191702 0.052313 -0.277644 255 0 0
-0.010658 -0.035745 0.094111 204 51 127
0.428814 0.000653 0.188794 204 51 127
0.430863 0.026486 0.211588 204 51 127
0.401113 0.051295 0.272094 204 51 127
0.107513 0.034513 0.076893 204 51 127
0.188337 0.002564 0.266692 204 51 127
0.083901 -0.002849 -0.036897 255 0 0
0.155526 0.035448 -0.004327 255 0 0
-0.308498 -0.015870 -0.047689 0 0 255
-0.013242 0.034663 0.094868 204 51 127
0.113373 0.034383 -0.096693 255 0 0
-0.092861 -0.039944 0.166802 204 51 127
0.434977 0.014662 -0.199639 255 0 0
0.035901 0.002940 -0.262137 255 0 0
0.104666 0.001679 0.254825 204 51 127
0.147474 0.019955 -0.260481 255 0 0
0.063552 -0.012437 0.262185 204 51 127
0.081104 -0.009467 -0.265336 255 0 0
-0.047958 -0.015072 -0.116739 255 0 0
-0.603149 -0.032235 0.019122 0 0 255
0.131935 0.024737 0.097008 204 51 127
-0.092840 0.013376 0.125260 204 51 127
-0.025537 0.001141 0.111213 204 51 127
0.395472 0.057091 0.238761 204 51 127
0.319229 0.030759 0.310740 204 51 127
0.045265 0.038600 -0.073347 255 0 0
0.211158 0.040488 0.062623 204 51 127
-0.006515 -0.017286 -0.236378 255 0 0
-0.873164 -0.047091 0.019134 0 0 255
0.396551 0.012650 0.112108 204 51 127
0.292413 -0.004728 0.285368 204 51 127
-0.056096 -0.028100 0.057209 204 51 127
-0.892031 -0.048139 0.016050 0 0 255
-0.441676 -0.031186 -0.052943 0 0 255
-0.537373 -0.043508 -0.042620 153 0 76
0.396837 0.056999 -0.221844 255 0 0
0.191414 0.039320 0.057450 204 51 127
0.045590 0.009682 -0.283238 255 0 0
-0.808619 -0.050712 0.029690 0 0 255
0.272654 -0.002749 -0.069316 255 0 0
-0.139796 0.013215 -0.065784 255 0 0
0.157509 0.030838 -0.094992 255 0 0
0.283966 -0.008880 0.093565 204 51 127
-0.714970 -0.045935 -0.032518 153 0 76
0.358244 0.009514 0.037286 204 51 127
0.286283 -0.009054 0.075202 204 51 127
0.159662 -0.023174 0.026060 204 51 127
-0.150127 0.005954 -0.145056 255 0 0
0.106594 0.024281 0.255427 204 51 127
-0.146514 -0.007128 -0.052304 255 0 0
0.427154 0.036802 0.179968 204 51 127
0.058711 0.031828 0.100837 204 51 127
0.390441 0.021402 0.090899 204 51 127
0.180383 0.009200 -0.305738 255 0 0
0.233393 0.038678 -0.070118 255 0 0
0.013129 0.012944 -0.053768 255 0 0
-0.694529 -0.037207 0.055861 0 0 255
0.192576 0.051417 -0.091790 255 0 0
0.220395 -0.009060 0.094946 204 51 127
0.253718 0.043421 0.301363 204 51 127
-0.754402 -0.041656 -0.008813 0 0 255
0.149749 -0.014794 -0.094819 255 0 0
0.001169 -0.006326 0.038865 204 51 127
-0.006023 -0.006825 0.248690 204 51 127
0.090194 -0.020242 -0.281452 255 0 0
0.028593 0.027631 -0.250808 255 0 0
-0.675934 -0.036182 0.043289 0 0 255
0.346569 0.060485 -0.264169 255 0 0
-0.117494 0.029700 -0.165240 255 0 0
0.091429 -0.004151 -0.274431 255 0 0
-0.071403 0.015206 0.125629 204 51 127
0.322862 0.002364 -0.068801 255 0 0
0.343530 -0.009338 -0.074773 255 0 0
0.386332 0.053403 0.082220 204 51 127
0.256423 0.049505 -0.300074 255 0 0
0.216373 -0.005777 0.286783 204 51 127
-0.317898 -0.023555 0.065561 153 0 76
0.368082 0.021159 0.251863 204 51 127
0.190267 0.042190 -0.076629 255 0 0
-0.074295 0.025326 -0.108200 255 0 0
0.104771 0.024489 -0.074440 255 0 0
0.378168 0.048878 -0.075562 255 0 0
0.426516 -0.005351 -0.142102 255 0 0
-0.005608 -0.026301 0.223485 204 51 127
-0.073319 0.032269 -0.074120 255 0 0
-0.042088 0.034004 -0.114119 255 0 0
0.138356 0.043569 -0.048463 255 0 0
0.237294 0.017315 -0.285345 255 0 0
0.414436 0.050017 0.044736 204 51 127
-0.030891 0.034491 -0.081769 255 0 0
-0.202562 -0.025407 0.099785 153 0 76
0.226539 -0.012181 -0.046354 255 0 0
0.438837 0.052552 0.072812 204 51 127
-0.574578 -0.037839 0.039307 0 0 255
-0.006703 0.009638 0.265255 204 51 127
0.093932 0.036637 0.076591 204 51 127
0.077384 -0.031050 0.086659 204 51 127
0.024062 0.023242 0.250120 204 51 127
0.279274 0.017748 -0.308603 255 0 0
0.409848 0.058329 -0.052687 255 0 0
0.412752 0.023368 0.041482 204 51 127
-0.751858 -0.048006 -0.047404 153 0 76
0.277272 -0.010148 -0.295169 255 0 0
0.326619 -0.007399 -0.289468 255 0 0
0.219605 -0.006351 0.268614 204 51 127
0.120636 0.009765 -0.096342 255 0 0
0.009697 -0.016883 0.089698 204 51 127
-0.389194 -0.020121 -0.003885 0 0 255
0.411597 0.029568 0.113069 204 51 127
0.436088 0.029758 0.160320 204 51 127
0.432406 -0.008175 0.070749 204 51 127
-0.376068 -0.019488 -0.034298 0 0 255
-0.016496 -0.012111 0.058352 204 51 127
0.393228 -0.009889 0.041832 204 51 127
0.289840 -0.001290 -0.091253 255 0 0
-0.039386 -0.015921 -0.097971 255 0 0
0.208617 0.047061 0.283275 204 51 127
-0.083253 -0.035831 0.198428 204 51 127
-0.417992 -0.021811 -0.049416 0 0 255
-0.163603 0.014975 0.124651 204 51 127
-0.962581 -0.053365 0.008964 0 0 255
0.330888 0.046914 0.066066 204 51 127
-0.193222 -0.017974 -0.104250 255 0 0
-0.316679 -0.016239 -0.019129 0 0 255
0.114511 0.044123 -0.256276 255 0 0
0.397681 0.050690 0.062981 204 51 127
0.280218 -0.015610 0.306425 204 51 127
-0.116331 -0.030720 -0.071775 255 0 0
0.315387 0.038241 0.093311 204 51 127
-0.296675 -0.015120 -0.004034 153 0 76
0.192699 0.046494 -0.054113 255 0 0
0.149423 -0.010878 0.262110 204 51 127
-0.108507 -0.037309 0.169243 204 51 127
0.234227 0.023819 -0.267526 255 0 0
0.379535 0.034118 -0.303336 255 0 0
0.112024 -0.001305 -0.027145 255 0 0
-0.018553 -0.025081 -0.059315 255 0 0
0.346669 0.015284 -0.070253 255 0 0
-0.796908 -0.057649 -0.035012 153 0 76
-0.626285 -0.048298 -0.050635 153 0 76
0.186846 0.045184 0.269535 204 51 127
-0.026073 0.009245 0.211529 204 51 127
0.084372 -0.024060 -0.265129 255 0 0
0.412850 0.028708 0.242944 204 51 127
-0.012461 0.017708 -0.245826 255 0 0
-0.325244 -0.032313 -0.010374 0 0 255
-0.152938 0.027685 -0.128403 255 0 0
0.379328 0.062848 -0.085021 255 0 0
0.112512 0.006897 -0.038206 255 0 0
0.372144 -0.002790 0.250354 204 51 127
0.404572 0.016845 0.088482 204 51 127
0.382814 0.062565 -0.258037 255 0 0
0.019023 0.041746 -0.235904 255 0 0
0.171942 0.044184 0.091788 204 51 127
-0.124817 -0.032750 0.173053 204 51 127
0.298592 0.045191 0.064957 204 51 127
-0.034046 -0.026524 0.221405 204 51 127
-0.088467 -0.019730 -0.168528 255 0 0
0.395258 0.009485 -0.295770 255 0 0
-0.133099 -0.038766 0.097543 204 51 127
0.242063 0.055028 -0.278100 255 0 0
0.241070 0.008875 0.269266 204 51 127
0.121182 0.014178 -0.256491 255 0 0
0.292383 -0.009311 -0.298148 255 0 0
-0.165264 -0.027038 0.114549 204 51 127
-0.086507 0.024531 0.077883 204 51 127
0.107687 0.013328 -0.296862 255 0 0
0.396360 -0.003611 -0.280447 255 0 0
0.328924 -0.012675 0.307500 204 51 127
0.433149 0.058060 0.171002 204 51 127
0.003937 0.034067 -0.268011 255 0 0
0.414207 -0.005218 0.275675 204 51 127
-0.102254 0.023943 0.182010 204 51 127
0.413740 0.006627 -0.229101 255 0 0
-0.091917 0.030479 0.132427 204 51 127
0.448941 0.045042 -0.071344 255 0 0
-0.110020 -0.027268 -0.188372 255 0 0
0.342295 0.037953 0.278746 204 51 127
0.411067 0.025347 -0.108398 255 0 0
-0.403702 -0.029087 0.006383 76 0 153
0.218953 0.028544 -0.040346 255 0 0
-0.097899 -0.036782 0.100062 204 51 127
-0.431340 -0.038148 -0.058013 153 0 76
0.134235 0.038574 -0.259299 255 0 0
-0.006234 -0.021810 -0.222091 255 0 0
0.330399 0.013452 0.074685 204 51 127
0.168378 0.038060 0.028531 204 51 127
0.245403 0.006891 -0.040329 255 0 0
0.277998 0.018359 0.093823 204 51 127
0.364166 0.044793 -0.095168 255 0 0
0.216462 0.006972 0.095063 204 51 127
0.239104 -0.003363 -0.092691 255 0 0
0.324990 0.005738 0.281820 204 51 127
-0.038408 0.025425 0.113344 204 51 127
-0.127574 -0.018315 -0.170486 255 0 0
0.060197 -0.014223 -0.052881 255 0 0
-0.529131 -0.043030 -0.019366 153 0 76
0.246459 0.005797 0.310309 204 51 127
0.147785 0.010228 -0.072369 255 0 0
-0.569831 -0.030508 -0.016085 0 0 255
0.116020 -0.025296 0.068644 204 51 127
-0.750057 -0.055024 -0.015505 153 0 76
-0.006413 -0.031931 0.068272 204 51 127
-0.092430 -0.004175 -0.038609 255 0 0
-0.879546 -0.047440 0.036825 0 0 255
0.052301 -0.028781 0.066872 204 51 127
-0.786027 -0.042307 0.013747 0 0 255
0.081971 -0.026734 0.280897 204 51 127
-0.021657 -0.018680 0.228595 204 51 127
-0.165371 0.009732 0.083214 204 51 127
0.283170 0.043422 -0.284154 255 0 0
0.340451 0.030579 -0.276942 255 0 0
0.315680 0.051884 0.074729 204 51 127
-0.052888 -0.034344 0.090111 204 51 127
0.004518 -0.024283 -0.076886 255 0 0
0.419586 -0.003855 0.044773 204 51 127
0.150810 0.031235 0.079400 204 51 127
0.101780 -0.012614 -0.048001 255 0 0
0.171421 0.000243 -0.281695 255 0 0
-0.117678 0.007429 0.183788 204 51 127
-0.082996 -0.001300 -0.114009 255 0 0
0.234192 0.010098 -0.070002 255 0 0
-0.074891 0.031505 -0.194853 255 0 0
0.321937 0.053676 -0.049988 255 0 0
0.043552 -0.026267 -0.254743 255 0 0
0.074463 -0.000461 0.272736 204 51 127
0.357532 0.005555 -0.255854 255 0 0
0.060185 0.036858 -0.268220 255 0 0
-0.755190 -0.048139 -0.029410 153 0 76
-0.034989 0.009995 0.233115 204 51 127
-0.744886 -0.040037 0.016219 0 0 255
-0.294835 -0.022287 0.068285 153 0 76
0.301737 0.000290 -0.282436 255 0 0
0.139262 -0.027738 0.083968 204 51 127
0.360808 0.017057 0.274698 204 51 127
-0.914220 -0.056891 -0.023925 153 0 76
0.344477 0.053700 0.090002 204 51 127
0.146620 -0.006182 -0.078540 255 0 0
-0.184074 -0.016414 0.021394 204 51 127
-0.591572 -0.031650 -0.002809 0 0 255
0.129392 -0.023992 0.294533 204 51 127
0.254415 0.054537 -0.071369 255 0 0
0.442278 -0.000852 -0.190092 255 0 0
-0.009595 0.029630 -0.091679 255 0 0
0.075391 0.030435 -0.264579 255 0 0
-0.012724 0.041360 -0.232147 255 0 0
0.178205 -0.021519 0.295322 204 51 127
0.429472 -0.002881 -0.214056 255 0 0
0.130665 0.031564 0.074320 204 51 127
0.158290 0.042424 0.094346 204 51 127
-0.165590 -0.038511 0.106093 204 51 127
-0.014303 -0.020797 0.093420 204 51 127
0.151952 -0.022631 0.285099 204 51 127
0.035542 -0.014128 -0.261658 255 0 0
0.216218 -0.012420 0.042090 204 51 127
0.193365 0.011415 -0.265339 255 0 0
0.255760 0.036167 0.287185 204 51 127
0.139833 0.027993 0.278756 204 51 127
-0.242570 -0.012196 0.002306 0 0 255
-0.063563 -0.012525 -0.103828 255 0 0
-0.244215 -0.019608 0.037404 153 0 76
-0.434609 -0.030032 -0.017949 0 0 255
0.129250 -0.027751 0.274219 204 51 127
0.090340 0.031001 0.051908 204 51 127
0.162259 0.050587 -0.268960 255 0 0
0.158466 0.000855 -0.303857 255 0 0
0.368577 0.053085 0.097162 204 51 127
0.283194 0.016279 -0.284003 255 0 0
-0.832715 -0.044901 0.006226 0 0 255
-0.082632 0.015516 0.182176 204 51 127
-0.699251 -0.042307 -0.023959 0 0 255
0.333856 -0.016763 0.274402 204 51 127
-0.008498 0.041931 -0.097105 255 0 0
0.062548 -0.016984 0.101193 204 51 127
0.074329 0.023618 -0.248104 255 0 0
0.039531 0.027423 0.240918 204 51 127
0.128721 -0.012086 0.026357 204 51 127
0.366246 -0.000831 -0.076117 255 0 0
-0.066425 -0.000405 0.057528 204 51 127
-0.249618 -0.028165 0.015025 153 0 76
-0.160797 -0.029260 -0.124345 255 0 0
0.150943 0.021553 0.006596 204 51 127
0.181476 -0.003577 -0.012513 255 0 0
0.189483 0.035160 0.095160 204 51 127
-0.023596 0.014376 -0.227407 255 0 0
-0.163046 -0.031543 0.083197 204 51 127
-0.151079 -0.015523 -0.032579 255 0 0
-0.734531 -0.046618 0.037464 0 0 255
0.411135 0.024755 -0.196145 255 0 0
0.175010 -0.023491 0.094756 204 51 127
0.359442 0.036300 0.037252 204 51 127
-0.056681 0.012960 0.217229 204 51 127
-0.486090 -0.025364 0.057172 0 0 255
0.194703 -0.006613 -0.306401 255 0 0
0.169630 -0.000582 -0.005918 255 0 0
0.455926 -0.006445 0.113211 204 51 127
0.410685 0.022329 0.279492 204 51 127
0.040654 0.004148 0.053835 204 51 127
-0.044525 0.018549 0.056504 204 51 127
0.265259 -0.015552 0.042175 204 51 127
-0.377589 -0.027653 0.016217 76 0 153
0.314870 0.045742 -0.091187 255 0 0
0.168484 0.029381 0.079064 204 51 127
-0.162002 0.020102 0.110775 204 51 127
0.073204 0.039976 -0.059870 255 0 0
0.011219 0.026645 0.088277 204 51 127
0.003901 0.026067 -0.106005 255 0 0
0.441482 -0.000788 -0.098538 255 0 0
-0.324192 -0.016590 0.003454 0 0 255
0.281873 0.035733 0.070979 204 51 127
0.369842 0.055651 0.256581 204 51 127
0.435696 0.059654 -0.072654 255 0 0
-0.619077 -0.047723 0.020331 153 0 76
0.238205 -0.007458 -0.289942 255 0 0
-0.253526 -0.020041 0.065846 153 0 76
-0.698630 -0.052184 -0.010778 153 0 76
0.375071 0.024682 -0.097114 255 0 0
0.236181 0.044288 -0.290151 255 0 0
0.314454 -0.005407 0.266956 204 51 127
0.322691 0.020312 0.038259 204 51 127
0.255677 0.034075 0.269221 204 51 127
0.311153 0.025103 0.266886 204 51 127
0.412942 0.016753 0.158386 204 51 127
-0.373797 -0.009796 -0.006818 76 0 153
-0.362967 -0.010089 0.004547 76 0 153
0.430500 0.022377 0.240770 204 51 127
0.084604 0.034282 0.282631 204 51 127
0.025136 -0.000069 0.260476 204 51 127
-0.370989 -0.021671 0.027536 0 0 255
0.402764 0.020800 -0.037069 255 0 0
0.327862 0.047477 0.297167 204 51 127
-0.021028 0.030867 0.109419 204 51 127
-0.055973 0.000739 -0.216266 255 0 0
0.187134 0.044228 0.074632 204 51 127
-0.901886 -0.063344 -0.001946 153 0 76
0.454830 0.051316 0.094732 204 51 127
0.452719 0.029569 -0.077510 255 0 0
-0.018760 0.034274 -0.256334 255 0 0
-0.127695 -0.006081 -0.039859 255 0 0
0.220703 0.038372 -0.285543 255 0 0
0.429540 0.020172 -0.160097 255 0 0
-0.302159 -0.023550 0.027180 153 0 76
0.028989 -0.004740 0.044409 204 51 127
0.399001 0.050614 -0.095921 255 0 0
0.088044 -0.026859 0.066873 204 51 127
-0.121287 -0.031246 -0.096893 255 0 0
0.361449 -0.005880 -0.093415 255 0 0
0.219233 0.001638 -0.266750 255 0 0
0.452190 0.006195 -0.166306 255 0 0
0.429591 -0.000069 0.157374 204 51 127
0.355273 0.020927 -0.274204 255 0 0
0.234117 0.014854 0.094777 204 51 127
0.046413 -0.004034 0.033702 204 51 127
0.068208 -0.014869 0.289413 204 51 127
0.202848 0.024095 -0.288889 255 0 0
-0.520309 -0.042665 -0.055229 153 0 76
-0.205182 -0.023357 0.008158 204 51 127
-0.541152 -0.043725 -0.056224 153 0 76
0.427256 0.020274 -0.046205 255 0 0
-0.036065 -0.015119 -0.219336 255 0 0
0.172075 -0.015084 -0.023992 255 0 0
-0.053848 -0.001343 0.209027 204 51 127
0.170104 -0.025484 0.270739 204 51 127
0.056155 -0.000395 0.101612 204 51 127
0.292697 0.001113 -0.308469 255 0 0
-0.108558 -0.030453 -0.138859 255 0 0
0.147913 0.037765 0.292170 204 51 127
0.077969 0.039927 -0.281383 255 0 0
-0.644785 -0.041016 -0.033078 0 0 255
-0.352982 -0.018295 -0.052657 0 0 255
0.339944 0.049334 -0.070174 255 0 0
0.289647 0.046386 -0.038147 255 0 0
0.387211 0.047408 0.235125 204 51 127
-0.084803 0.001034 0.058855 204 51 127
0.153316 0.021541 0.285800 204 51 127
-0.455877 -0.031735 0.063678 0 0 255
0.404215 0.035896 0.127029 204 51 127
0.009170 0.022764 0.105866 204 51 127
-0.403280 -0.020943 -0.028204 0 0 255
0.198742 0.041345 -0.037024 255 0 0
0.071041 0.037235 0.271056 204 51 127
-0.775159 -0.046796 -0.018778 0 0 255
-0.242490 -0.020545 -0.061907 0 0 255
-0.438527 -0.038477 -0.028833 153 0 76
0.268921 0.019324 0.040961 204 51 127
-0.358897 -0.024640 -0.012844 153 0 76
-0.610121 -0.032652 0.005409 0 0 255
-0.758279 -0.040754 0.024258 0 0 255
0.111878 0.017964 -0.278337 255 0 0
0.395595 0.057521 -0.075351 255 0 0
-0.049989 0.024759 0.214471 204 51 127
0.393390 0.025276 0.228640 204 51 127
0.230030 0.045555 0.073018 204 51 127
-0.042463 -0.026064 0.099012 204 51 127
-0.324384 -0.016517 0.040996 0 0 255
0.067495 -0.006519 -0.288081 255 0 0
0.038499 0.020315 0.103055 204 51 127
-0.715794 -0.046715 -0.059531 153 0 76
0.424661 0.049663 -0.220794 255 0 0
0.113745 0.000696 0.279863 204 51 127
0.269679 -0.008469 -0.307503 255 0 0
0.035560 0.043525 -0.257770 255 0 0
0.425598 -0.007439 0.250757 204 51 127
0.033876 0.030716 0.060275 204 51 127
-0.073861 -0.039129 0.119114 204 51 127
-0.097096 -0.020087 -0.144477 255 0 0
-0.057073 -0.010181 -0.030276 255 0 0
0.387396 0.050008 0.052583 204 51 127
-0.149193 -0.038283 0.141091 204 51 127
-0.153742 0.027749 -0.096322 255 0 0
0.078459 -0.013022 -0.051555 255 0 0
0.175571 0.013824 0.288611 204 51 127
0.017156 0.005143 -0.245857 255 0 0
-0.456804 -0.031317 -0.042299 0 0 255
0.140613 0.042913 0.089131 204 51 127
0.291102 0.012724 -0.266422 255 0 0
0.079458 0.027227 -0.051199 255 0 0
-0.715809 -0.038369 0.049002 0 0 255
-0.028043 -0.014002 -0.055556 255 0 0
0.229904 -0.006429 0.071981 204 51 127
0.426300 -0.008477 0.101441 204 51 127
0.318275 0.047752 -0.280933 255 0 0
-0.263277 -0.020676 0.021503 153 0 76
-0.414469 -0.037028 0.030519 153 0 76
0.211772 0.043643 -0.266766 255 0 0
-0.017056 -0.009004 -0.215498 255 0 0
-0.073949 0.018619 0.201638 204 51 127
0.083366 0.010481 0.274451 204 51 127
-0.314512 -0.031776 -0.028633 153 0 76
-0.110327 -0.037355 0.124495 204 51 127
-0.348685 -0.017824 0.043972 0 0 255
0.402994 -0.013062 0.233157 204 51 127
0.405775 0.047891 -0.206107 255 0 0
-0.915065 -0.055235 0.032323 0 0 255
0.413148 0.043046 0.172492 204 51 127
0.208146 0.014683 0.286122 204 51 127
0.084796 -0.009915 -0.098721 255 0 0
-0.055766 -0.015538 -0.215471 255 0 0
0.174314 0.033400 -0.094397 255 0 0
-0.847719 -0.060298 0.009882 153 0 76
0.290217 -0.019037 0.283228 204 51 127
0.355565 0.019823 0.073554 204 51 127
0.435982 0.028304 0.188989 204 51 127
0.176306 -0.008444 0.265461 204 51 127
-0.053225 -0.014764 -0.187308 255 0 0
0.212635 0.015547 -0.093456 255 0 0
0.441278 0.039274 -0.208822 255 0 0
-0.089397 0.013378 -0.209973 255 0 0
-0.294502 -0.023357 -0.068166 0 0 255
-0.276751 -0.021445 0.004696 0 0 255
0.415013 0.026575 -0.172337 255 0 0
0.426664 0.037141 -0.190259 255 0 0
0.005267 0.014118 -0.089677 255 0 0
-0.149503 -0.031959 -0.073380 255 0 0
0.451308 -0.000236 -0.127300 255 0 0
0.438993 0.016382 -0.177943 255 0 0
-0.121510 -0.012968 0.042002 204 51 127
0.412943 0.047773 -0.095973 255 0 0
0.006881 0.028228 -0.228878 255 0 0
-0.246932 -0.028058 -0.009559 204 51 127
-0.028464 0.018760 0.225782 204 51 127
-0.119914 0.018836 0.061633 204 51 127
-0.401842 -0.020909 -0.042655 153 0 76
0.428199 0.038940 -0.168547 255 0 0
-0.092231 0.037187 -0.159634 255 0 0
0.285594 -0.005610 0.269039 204 51 127
0.193423 -0.010547 0.031500 204 51 127
0.267780 0.005515 0.291778 204 51 127
0.352768 -0.009352 -0.275189 255 0 0
-0.812616 -0.058504 -0.049727 153 0 76
-0.223327 -0.018467 0.042988 204 51 127
0.035051 -0.016466 -0.053513 255 0 0
0.316654 -0.017015 0.285714 204 51 127
0.257603 0.009962 -0.308509 255 0 0
0.057780 -0.008880 0.055010 204 51 127
-0.236079 -0.019064 0.081398 153 0 76
-0.101920 0.022516 0.137391 204 51 127
-0.677582 -0.043905 -0.043052 153 0 76
-0.125875 -0.031496 -0.118678 255 0 0
-0.096016 -0.028731 0.157198 204 51 127
-0.347569 -0.017811 0.021141 0 0 255
0.133428 0.048857 -0.276950 255 0 0
0.441820 -0.005939 0.210336 204 51 127
-0.105463 -0.037224 0.070589 204 51 127
0.456244 0.014208 0.135266 204 51 127
0.393489 0.021567 -0.105869 255 0 0
-0.370079 -0.019218 -0.051990 0 0 255
0.015415 0.022244 -0.245641 255 0 0
0.404404 0.018658 -0.120551 255 0 0
-0.199999 -0.015335 -0.115254 255 0 0
-0.541024 -0.028689 0.026557 0 0 255
0.144103 0.037784 -0.095391 255 0 0
0.152087 0.044339 -0.066670 255 0 0
-0.202084 -0.017236 0.078518 153 0 76
-0.052923 0.013430 -0.118021 255 0 0
0.405795 0.024957 -0.238352 255 0 0
0.430273 0.051092 0.055141 204 51 127
-0.072248 0.001288 -0.224577 255 0 0
-0.065692 -0.010419 0.176276 204 51 127
0.034246 0.002748 -0.238135 255 0 0
-0.915964 -0.056681 0.010154 0 0 255
-0.103384 -0.010270 0.128512 204 51 127
-0.691290 -0.046953 -0.061320 153 0 76
0.218499 -0.015551 -0.090567 255 0 0
-0.456403 -0.031223 -0.014144 0 0 255
0.432350 0.039226 -0.233557 255 0 0
0.200802 -0.023714 0.284787 204 51 127
0.015419 0.004371 0.088638 204 51 127
0.150750 0.022800 -0.303007 255 0 0
0.146193 0.036850 0.038373 204 51 127
-0.075383 0.032682 -0.167325 255 0 0
0.391052 0.008390 -0.263307 255 0 0
0.059037 0.009329 0.261253 204 51 127
0.113984 0.030932 -0.041197 255 0 0
-0.040262 -0.018927 0.246436 204 51 127
0.362080 0.032277 -0.252773 255 0 0
0.026231 -0.030220 0.072292 204 51 127
-0.765705 -0.041256 -0.002426 0 0 255
-0.107582 0.027024 0.153685 204 51 127
0.298282 0.057371 -0.285014 255 0 0
0.342911 0.054062 -0.301659 255 0 0
0.417995 0.036001 -0.120488 255 0 0
-0.232138 -0.020009 -0.071869 0 0 255
-0.018213 -0.000516 0.216036 204 51 127
-0.384847 -0.035574 -0.027536 153 0 76
0.303602 -0.015234 0.050844 204 51 127
0.310799 -0.011473 -0.269146 255 0 0
-0.062345 0.015563 0.181681 204 51 127
0.102981 -0.015449 -0.097190 255 0 0
0.040121 -0.003412 -0.079546 255 0 0
0.437392 0.039040 0.219387 204 51 127
-0.129211 -0.009189 0.170033 204 51 127
-0.421696 -0.029333 -0.017201 153 0 76
-0.138222 0.021845 0.113932 204 51 127
0.144586 -0.016528 -0.026381 255 0 0
-0.057492 -0.008316 -0.056755 255 0 0
0.112147 0.035750 0.289171 204 51 127
-0.079973 0.011787 -0.184012 255 0 0
0.147911 0.010592 -0.095387 255 0 0
0.399438 0.056134 0.089369 204 51 127
-0.867222 -0.053942 0.028149 0 0 255
0.298776 0.045088 0.047113 204 51 127
0.290155 0.037404 0.268429 204 51 127
0.333228 0.003124 -0.262329 255 0 0
-0.805298 -0.058082 -0.023615 153 0 76
-0.098403 0.005409 -0.144294 255 0 0
-0.078927 0.005279 -0.131111 255 0 0
0.064490 0.045503 -0.258088 255 0 0
0.061941 0.011639 -0.052620 255 0 0
0.456677 0.049731 -0.116749 255 0 0
0.190949 -0.002908 -0.265227 255 0 0
0.133494 0.015887 -0.281988 255 0 0
0.192628 -0.018287 -0.279162 255 0 0
0.439229 0.014908 -0.218012 255 0 0
-0.087016 -0.027515 0.059290 204 51 127
0.030613 -0.001219 -0.055412 255 0 0
0.213820 0.008737 0.268180 204 51 127
-0.072938 -0.035571 0.075200 204 51 127
-0.833081 -0.049193 -0.011184 153 0 76
0.143942 0.017413 0.096740 204 51 127
-0.044469 0.001693 0.056443 204 51 127
0.411408 0.032950 0.190568 204 51 127
-0.179862 -0.008880 -0.018860 255 0 0
0.038027 -0.020465 0.254632 204 51 127
0.027594 0.016388 0.054070 204 51 127
0.412750 0.050053 -0.227123 255 0 0
0.279429 0.051353 -0.052370 255 0 0
-0.561947 -0.044723 -0.020008 153 0 76
0.367924 -0.005217 0.037462 204 51 127
-0.145775 -0.039362 0.096607 204 51 127
0.021972 0.008822 0.104824 204 51 127
0.261723 0.025139 0.310507 204 51 127
0.129711 0.038924 -0.299644 255 0 0
-0.095075 0.030710 -0.110161 255 0 0
-0.214277 -0.015465 -0.109731 255 0 0
-0.654370 -0.035050 0.020577 0 0 255
0.454212 -0.006259 0.142634 204 51 127
0.306877 -0.007975 -0.056402 255 0 0
0.072123 0.026351 0.082935 204 51 127
0.356080 0.019671 -0.093875 255 0 0
0.063270 0.007306 0.083863 204 51 127
-0.080940 0.024525 0.102893 204 51 127
-0.070128 0.029575 0.122974 204 51 127
0.011226 0.035744 0.252528 204 51 127
-0.919363 -0.064313 -0.002551 153 0 76
0.093170 0.028159 -0.098130 255 0 0
-0.737003 -0.047172 0.003535 153 0 76
0.425455 0.051141 0.122538 204 51 127
-0.096647 0.004178 -0.157599 255 0 0
0.165062 -0.002627 -0.262455 255 0 0
0.126966 -0.010522 -0.299141 255 0 0
-0.013187 -0.029491 0.260866 204 51 127
0.344796 0.021878 -0.034975 255 0 0
-0.898685 -0.063239 -0.027110 153 0 76
-0.668591 -0.047517 -0.062780 153 0 76
0.428669 0.059338 -0.099363 255 0 0
-0.047369 -0.034932 0.116130 204 51 127
0.116336 0.017277 0.040274 204 51 127
-0.048151 0.009293 0.099980 204 51 127
0.393063 0.032241 0.109182 204 51 127
-0.018702 0.021162 -0.109601 255 0 0
0.416003 0.007026 0.226298 204 51 127
0.441796 -0.000659 -0.085219 255 0 0
0.423590 0.039434 0.224677 204 51 127
0.293517 -0.010266 -0.069950 255 0 0
0.101302 0.017477 0.297223 204 51 127
0.416295 0.048219 -0.041360 255 0 0
0.165510 0.038647 0.292604 204 51 127
0.355885 0.039223 -0.307124 255 0 0
0.030966 0.003870 -0.279464 255 0 0
-0.632284 -0.033836 0.020028 0 0 255
0.428037 0.053493 -0.159032 255 0 0
-0.104984 -0.013037 -0.034626 255 0 0
0.455511 0.027535 -0.137540 255 0 0
-0.002618 0.006869 0.091393 204 51 127
-0.034024 -0.001049 -0.031718 255 0 0
0.444955 0.010445 -0.062960 255 0 0
0.421779 0.059002 -0.087854 255 0 0
-0.167764 -0.009931 -0.099457 255 0 0
0.434821 0.055611 -0.187825 255 0 0
-0.789097 -0.043060 -0.004900 0 0 255
0.344698 0.006195 -0.276458 255 0 0
-0.260589 -0.028597 0.076869 153 0 76
-0.001281 -0.005357 0.107452 204 51 127
-0.559188 -0.037245 0.002918 153 0 76
0.403466 0.004707 -0.242184 255 0 0
-0.202931 -0.018478 -0.092269 255 0 0
0.415532 0.055648 -0.266241 255 0 0
0.302784 0.046118 0.298459 204 51 127
0.345786 -0.012930 0.047778 204 51 127
0.410909 0.009946 -0.138168 255 0 0
0.329439 0.004100 -0.279053 255 0 0
-0.548355 -0.043825 0.038777 153 0 76
-0.400626 -0.028177 -0.010313 0 0 255
0.222160 0.040775 0.307971 204 51 127
-0.387104 -0.025811 0.024877 153 0 76
0.104099 0.005972 0.098564 204 51 127
-0.207983 -0.017626 0.048326 204 51 127
0.421215 0.001760 -0.043150 255 0 0
0.282887 -0.020036 0.082483 204 51 127
-0.058518 0.013654 0.235726 204 51 127
0.423355 0.058370 0.210029 204 51 127
-0.524727 -0.027713 0.031679 0 0 255
0.292198 0.023563 -0.288975 255 0 0
-0.087152 -0.029219 -0.072458 255 0 0
0.207456 -0.000495 0.072241 204 51 127
0.069189 -0.027420 0.274908 204 51 127
-0.640434 -0.041768 -0.002504 0 0 255
-0.035826 0.020943 -0.089550 255 0 0
-0.602188 -0.039795 -0.054866 153 0 76
-0.259168 -0.013263 -0.071474 0 0 255
-0.079650 0.011645 -0.160291 255 0 0
0.141879 -0.023828 0.072030 204 51 127
0.005317 -0.000985 -0.024619 255 0 0
-0.311355 -0.024241 -0.070545 0 0 255
-0.555235 -0.044267 0.020238 153 0 76
-0.359565 -0.034210 -0.028374 153 0 76
-0.487847 -0.033171 -0.057074 153 0 76
0.250871 0.019016 -0.092635 255 0 0
0.426741 0.046212 0.154642 204 51 127
-0.158062 0.011953 -0.134144 255 0 0
0.008841 -0.027764 -0.091961 255 0 0
-0.164989 0.015696 -0.082752 255 0 0
-0.220585 -0.018235 0.077502 153 0 76
0.205371 0.040876 0.297451 204 51 127
-0.101127 0.027048 -0.168811 255 0 0
-0.083295 -0.032869 -0.177206 255 0 0
0.424735 0.053095 -0.196040 255 0 0
0.257411 0.032996 -0.308552 255 0 0
-0.108772 -0.028942 0.191306 204 51 127
-0.369477 -0.010547 0.015850 76 0 153
0.066598 -0.015706 0.078229 204 51 127
-0.128321 0.022298 0.090683 204 51 127
0.396689 -0.013348 0.104219 204 51 127
0.423169 0.020556 -0.209036 255 0 0
-0.885872 -0.062404 0.006523 153 0 76
-0.050834 0.013219 -0.100504 255 0 0
-0.020318 -0.032664 0.067858 204 51 127
0.166182 -0.015524 -0.052911 255 0 0
-0.088368 0.021843 0.143644 204 51 127
-0.045171 -0.037181 0.201697 204 51 127
0.443379 0.008840 -0.207237 255 0 0
-0.654025 -0.034980 0.059916 0 0 255
0.387110 0.044431 0.104418 204 51 127
-0.168140 0.013403 -0.111712 255 0 0
0.421167 0.030082 -0.230411 255 0 0
0.209623 -0.012564 -0.041960 255 0 0
-0.052054 0.023417 -0.056598 255 0 0
-0.065031 0.025695 0.083127 204 51 127
-0.012107 0.024342 -0.234441 255 0 0
-0.213346 -0.026148 0.037710 204 51 127
-0.425853 -0.021978 0.051262 0 0 255
0.380182 0.025611 0.264955 204 51 127
0.288856 -0.012870 -0.272037 255 0 0
-0.494309 -0.041298 -0.019569 153 0 76
0.007491 -0.004787 -0.083067 255 0 0
0.449342 0.015506 0.177500 204 51 127
-0.024891 -0.018280 -0.110739 255 0 0
0.413398 0.051553 0.079269 204 51 127
0.066258 0.015608 -0.288163 255 0 0
0.306401 0.006634 -0.036953 255 0 0
-0.161580 -0.023362 0.028069 204 51 127
0.424996 0.038850 -0.137518 255 0 0
-0.486775 -0.025428 0.043749 0 0 255
0.392232 0.053449 -0.260262 255 0 0
-0.077940 -0.034619 0.216241 204 51 127
0.029592 -0.031892 0.102760 204 51 127
-0.161393 -0.032724 -0.094146 255 0 0
-0.524313 -0.035211 0.043478 0 0 255
0.292063 -0.015298 0.300119 204 51 127
-0.077255 0.009175 0.163888 204 51 127
0.355557 0.055471 -0.047299 255 0 0
0.304096 -0.005265 0.289897 204 51 127
0.423141 0.052359 0.236871 204 51 127
0.351102 0.048613 0.288075 204 51 127
-0.417927 -0.029867 0.001719 0 0 255
0.127644 -0.024577 0.057208 204 51 127
0.245465 0.049275 -0.048406 255 0 0
-0.932739 -0.057912 -0.021227 153 0 76
0.014788 0.006761 0.256882 204 51 127
0.038196 -0.032793 0.249840 204 51 127
0.430445 0.037288 0.238601 204 51 127
0.214616 0.025371 0.309770 204 51 127
0.118984 0.008253 -0.298398 255 0 0
-0.721459 -0.038784 0.003818 0 0 255
-0.845788 -0.050667 -0.011999 153 0 76
-0.084769 0.035863 -0.133488 255 0 0
0.007157 0.002722 -0.228290 255 0 0
-0.110809 -0.005180 -0.046112 255 0 0
0.197240 0.038783 -0.265799 255 0 0
-0.642354 -0.042025 -0.059957 153 0 76
-0.115255 0.022967 0.125427 204 51 127
-0.579321 -0.030925 0.010756 0 0 255
-0.434143 -0.030660 0.035811 153 0 76
-0.024487 -0.027211 0.111048 204 51 127
0.320917 0.027144 -0.091461 255 0 0
-0.192411 -0.009573 -0.037074 255 0 0
-0.585364 -0.036933 -0.034648 153 0 76
0.091616 -0.018563 -0.079181 255 0 0
0.003882 0.034984 -0.055520 255 0 0
-0.506073 -0.041777 0.023347 153 0 76
0.188406 0.000784 -0.022753 255 0 0
-0.069699 0.031790 -0.222376 255 0 0
-0.952210 -0.066195 -0.018613 153 0 76
0.433838 0.019705 0.138997 204 51 127
-0.017944 -0.014223 0.260124 204 51 127
0.281309 0.032629 0.093597 204 51 127
-0.260671 -0.013204 -0.015889 0 0 255
-0.561196 -0.036684 -0.039858 0 0 255
0.333220 0.051774 0.285150 204 51 127
0.436158 0.004655 -0.144093 255 0 0
0.060959 -0.012550 -0.267870 255 0 0
0.413154 0.057236 0.190375 204 51 127
0.393345 0.057024 -0.275905 255 0 0
-0.700465 -0.044720 0.045230 0 0 255
0.198015 0.034415 -0.070814 255 0 0
0.124769 0.009879 -0.029990 255 0 0
0.413087 0.042097 0.241502 204 51 127
0.220445 0.054180 -0.086791 255 0 0
0.221444 0.025982 -0.266937 255 0 0
-0.339631 -0.017562 -0.049376 0 0 255
0.086329 0.026572 -0.292973 255 0 0
0.381127 0.000171 -0.241586 255 0 0
-0.072162 -0.026203 -0.222089 255 0 0
0.017934 -0.010407 -0.245856 255 0 0
0.287962 0.005107 -0.289337 255 0 0
0.035489 -0.012518 -0.238303 255 0 0
0.084979 0.032448 0.251882 204 51 127
0.164185 0.023655 0.006576 204 51 127
0.176730 0.035267 -0.077481 255 0 0
-0.140684 0.028550 -0.115047 255 0 0
-0.348032 -0.025295 0.006021 76 0 153
-0.343743 -0.032240 -0.063258 153 0 76
-0.122056 -0.038220 0.091758 204 51 127
-0.263799 -0.013466 -0.054096 0 0 255
0.401432 -0.002840 -0.071541 255 0 0
0.363703 -0.015482 0.080779 204 51 127
0.378875 0.041466 0.242914 204 51 127
0.138275 -0.016338 -0.076396 255 0 0
0.410747 0.021712 0.196737 204 51 127
0.437555 -0.010171 0.173839 204 51 127
0.344134 0.015643 0.261833 204 51 127
-0.003546 -0.023786 0.107834 204 51 127
-0.008969 0.021995 -0.054732 255 0 0
-0.220112 -0.026451 0.062986 204 51 127
-0.828403 -0.044628 0.017861 0 0 255
0.421805 0.024356 -0.127685 255 0 0
0.324695 -0.009298 -0.089428 255 0 0
0.365472 0.048891 0.053247 204 51 127
0.136170 0.000689 0.283600 204 51 127
0.309507 0.005591 0.283702 204 51 127
0.073360 0.040077 -0.072971 255 0 0
0.195848 0.003273 0.095383 204 51 127
0.257488 -0.003374 -0.074193 255 0 0
0.062365 -0.002852 0.045231 204 51 127
-0.050094 0.031197 0.195274 204 51 127
0.422009 0.037008 0.257641 204 51 127
0.064493 0.005985 0.288803 204 51 127
0.249404 0.010930 -0.267368 255 0 0
0.302839 0.027366 -0.068705 255 0 0
0.423670 -0.001651 -0.106880 255 0 0
-0.423432 -0.037171 -0.068233 153 0 76
0.198481 0.000186 -0.283646 255 0 0
0.410650 0.001483 0.202390 204 51 127
-0.186085 -0.016368 0.083149 204 51 127
0.078721 -0.013557 0.100167 204 51 127
0.375749 -0.011432 0.057641 204 51 127
-0.047435 -0.009051 0.027101 204 51 127
0.388733 0.022990 -0.034843 255 0 0
-0.002206 -0.015944 -0.265379 255 0 0
0.048786 0.038479 0.255303 204 51 127
-0.084247 -0.036055 0.094255 204 51 127
0.035635 0.025739 0.254755 204 51 127
-0.193065 -0.009702 -0.073721 255 0 0
0.424224 0.044109 0.140195 204 51 127
0.047695 0.019784 0.079345 204 51 127
0.394862 0.042520 -0.081774 255 0 0
0.172661 -0.012930 0.079140 204 51 127
-0.000962 0.019353 -0.250165 255 0 0
-0.022606 -0.000329 0.055642 204 51 127
-0.290894 -0.022178 0.017550 153 0 76
0.405035 0.018888 0.240985 204 51 127
0.400025 0.030138 -0.083452 255 0 0
0.407313 0.041929 0.092848 204 51 127
0.316548 0.058880 -0.269907 255 0 0
0.341885 0.039010 -0.035070 255 0 0
0.327880 0.043604 0.038508 204 51 127
-0.125709 0.022531 0.135619 204 51 127
0.007489 0.011924 -0.242353 255 0 0
-0.011770 -0.003596 -0.233599 255 0 0
-0.011202 0.034995 0.228736 204 51 127
-0.545887 -0.033838 -0.034132 0 0 255
0.247777 0.019139 0.042023 204 51 127
0.357057 -0.012309 0.063296 204 51 127
0.099201 -0.001976 -0.053784 255 0 0
-0.109171 0.023223 0.075384 204 51 127
0.318030 0.005643 0.074259 204 51 127
-0.021937 0.018394 -0.258273 255 0 0
-0.574120 -0.045330 0.000739 153 0 76
0.189823 0.000058 0.078680 204 51 127
0.019062 0.015981 -0.274917 255 0 0
-0.254452 -0.028330 0.054665 153 0 76
0.170088 0.029774 0.264861 204 51 127
0.190875 0.020872 0.266870 204 51 127
-0.057835 0.038372 -0.116484 255 0 0
-0.045736 -0.020733 0.225262 204 51 127
0.033692 0.014902 -0.103051 255 0 0
-0.603153 -0.033717 -0.019467 0 0 255
0.427392 0.057960 -0.124399 255 0 0
0.197013 -0.021021 0.050197 204 51 127
0.147539 -0.023687 0.027932 204 51 127
0.207978 -0.013184 -0.068737 255 0 0
0.079622 0.020514 -0.081943 255 0 0
-0.223026 -0.011375 -0.095526 0 0 255
-0.210665 -0.010596 -0.052809 255 0 0
0.458984 0.007468 -0.105131 255 0 0
-0.599172 -0.046706 -0.007509 153 0 76
-0.017276 -0.000107 -0.032526 255 0 0
-0.064400 -0.028078 -0.083836 255 0 0
-0.265481 -0.013693 -0.087775 0 0 255
0.155510 0.001510 0.281001 204 51 127
-0.015480 -0.007414 0.232458 204 51 127
-0.057254 -0.002795 -0.184273 255 0 0
-0.467313 -0.039792 0.039649 153 0 76
0.230185 0.041647 0.290817 204 51 127
-0.038237 -0.000056 0.219427 204 51 127
-0.232924 -0.027265 0.010495 204 51 127
-0.012941 0.020999 0.234990 204 51 127
0.013922 0.015587 0.232095 204 51 127
-0.028090 0.034357 -0.240708 255 0 0
-0.101068 -0.020942 -0.165635 255 0 0
0.047307 -0.013352 -0.084424 255 0 0
0.245961 0.025944 -0.290192 255 0 0
0.423612 0.035514 0.114569 204 51 127
0.037012 0.015122 -0.262591 255 0 0
-0.476565 -0.040357 0.002442 153 0 76
0.383858 0.011749 0.269306 204 51 127
0.187834 -0.013924 -0.032193 255 0 0
-0.611713 -0.039754 0.062315 0 0 255
0.061111 0.032925 0.279672 204 51 127
0.348408 0.010236 0.283216 204 51 127
0.328195 0.013023 0.094060 204 51 127
-0.831384 -0.044889 0.044336 0 0 255
-0.002797 -0.031946 0.085550 204 51 127
-0.071977 0.000997 -0.057840 255 0 0
0.103155 0.033822 -0.253731 255 0 0
0.400735 0.033997 0.256126 204 51 127
0.437968 -0.007707 0.186396 204 51 127
-0.393431 -0.028645 -0.055943 0 0 255
-0.414131 -0.021403 0.023005 0 0 255
-0.126396 -0.031601 -0.137430 255 0 0
-0.108886 0.016733 -0.137196 255 0 0
-0.571699 -0.045133 0.024015 153 0 76
0.376234 -0.002155 -0.096459 255 0 0
0.378030 0.020725 -0.265112 255 0 0
-0.149906 -0.022048 0.068282 204 51 127
0.355170 0.042603 0.257875 204 51 127
0.117002 -0.016061 0.097728 204 51 127
-0.004882 -0.014883 0.046213 204 51 127
0.116415 0.041201 0.093417 204 51 127
0.068560 0.012026 0.100724 204 51 127
0.410824 0.013237 -0.106910 255 0 0
0.339398 0.053275 -0.279267 255 0 0
-0.118622 0.002329 -0.181706 255 0 0
-0.092318 -0.033317 -0.129200 255 0 0
-0.317976 -0.016420 -0.059531 0 0 255
0.011522 0.032568 0.232045 204 51 127
0.166393 0.022448 0.287439 204 51 127
0.443193 0.004564 0.063269 204 51 127
0.140218 0.010923 -0.008199 255 0 0
-0.807728 -0.050503 0.047190 0 0 255
0.006705 -0.018843 -0.105647 255 0 0
-0.069431 -0.013293 0.204382 204 51 127
0.130573 0.049491 -0.084872 255 0 0
0.390890 0.054200 -0.296240 255 0 0
0.374625 0.055830 -0.295373 255 0 0
-0.128313 -0.038537 0.109836 204 51 127
-0.145905 -0.003477 0.067049 204 51 127
0.026577 0.002304 -0.036361 255 0 0
0.299430 0.011671 0.093550 204 51 127
0.364779 0.048205 -0.073170 255 0 0
0.122454 -0.014353 0.258018 204 51 127
0.449151 -0.007198 0.128050 204 51 127
0.205806 0.001664 0.309158 204 51 127
-0.003034 0.041715 -0.243213 255 0 0
-0.067651 -0.022129 0.057798 204 51 127
0.306287 0.058875 -0.076092 255 0 0
0.010674 0.023619 0.054586 204 51 127
-0.092840 0.019084 0.166521 204 51 127
0.025804 0.034181 -0.103532 255 0 0
-0.077408 0.024411 0.061962 204 51 127
0.313264 0.001567 0.038850 204 51 127
-0.080969 -0.035870 0.065697 204 51 127
0.437672 0.009672 0.164789 204 51 127
-0.103769 -0.030013 0.131600 204 51 127
-0.108721 -0.005447 0.141335 204 51 127
-0.787912 -0.042351 0.040983 0 0 255
-0.089988 0.031368 -0.085696 255 0 0
0.413276 -0.001712 -0.273638 255 0 0
0.147257 0.043836 0.274277 204 51 127
0.259413 0.053599 -0.288774 255 0 0
0.352391 -0.008579 0.260789 204 51 127
-0.489470 -0.041000 0.003781 153 0 76
-0.089579 0.025895 -0.120150 255 0 0
0.368316 0.026168 0.037155 204 51 127
0.240492 -0.018607 0.049498 204 51 127
-0.039041 -0.002270 -0.200235 255 0 0
-0.019535 -0.015033 0.026623 204 51 127
0.306296 0.046293 -0.282086 255 0 0
0.305066 0.052376 0.277776 204 51 127
0.050413 0.003239 0.243053 204 51 127
-0.397411 -0.036148 0.015397 153 0 76
-0.112322 -0.017999 0.061153 204 51 127
0.160485 0.044408 -0.293748 255 0 0
-0.286276 -0.014721 -0.066061 0 0 255
0.153987 0.037271 0.050677 204 51 127
-0.503822 -0.026555 -0.007959 0 0 255
0.222113 -0.023262 0.081830 204 51 127
0.129811 0.023578 0.020900 204 51 127
0.274093 0.043744 0.291223 204 51 127
0.303073 0.039645 0.093310 204 51 127
0.366740 0.028974 0.277659 204 51 127
0.067372 0.006362 -0.269850 255 0 0
-0.903645 -0.048771 0.021194 0 0 255
0.381886 0.056490 0.254958 204 51 127
0.374226 0.025391 0.099494 204 51 127
-0.015428 0.025680 0.056043 204 51 127
0.241047 0.036702 0.269342 204 51 127
0.427263 0.003279 -0.196825 255 0 0
0.071441 -0.004421 0.054628 204 51 127
-0.590894 -0.038674 0.054057 0 0 255
-0.029308 0.027460 -0.209327 255 0 0
0.155115 0.050819 -0.084003 255 0 0
0.351274 0.031688 0.095723 204 51 127
0.254076 -0.020992 0.283793 204 51 127
0.186851 0.012461 -0.077203 255 0 0
-0.480299 -0.033038 0.036991 0 0 255
0.256685 -0.001243 0.041700 204 51 127
-0.158173 -0.035325 0.130362 204 51 127
0.405982 -0.012458 0.247461 204 51 127
0.412945 0.027915 0.164016 204 51 127
0.180601 0.029068 0.307302 204 51 127
-0.059960 -0.016586 -0.201407 255 0 0
0.441595 0.047671 0.203759 204 51 127
-0.037560 0.017950 -0.219537 255 0 0
-0.028514 0.001068 -0.111400 255 0 0
-0.050913 0.021022 0.100174 204 51 127
-0.558986 -0.029688 0.055124 0 0 255
0.224580 -0.004476 -0.092985 255 0 0
-0.484998 -0.040892 -0.045560 153 0 76
-0.010283 0.027368 0.085750 204 51 127
0.162917 0.007769 -0.094839 255 0 0
-0.540615 -0.028695 0.013859 0 0 255
0.221098 -0.022852 0.281190 204 51 127
0.044840 0.034603 -0.257657 255 0 0
-0.473485 -0.033170 -0.069548 153 0 76
-0.167365 -0.015351 0.090083 204 51 127
-0.196887 -0.016895 0.106120 153 0 76
-0.128696 -0.020990 0.063270 204 51 127
0.406078 -0.003880 0.212155 204 51 127
0.342873 0.059094 -0.091110 255 0 0
-0.094943 0.030704 -0.195600 255 0 0
0.329320 -0.005472 0.281445 204 51 127
0.145482 0.003068 0.007871 204 51 127
0.108330 -0.022880 -0.265075 255 0 0
-0.011479 0.009952 -0.054789 255 0 0
-0.396160 -0.036173 -0.022528 153 0 76
0.223696 -0.012997 -0.299853 255 0 0
0.209688 0.008470 0.041359 204 51 127
-0.436218 -0.022525 0.058194 0 0 255
0.134608 0.027313 -0.095804 255 0 0
0.384589 -0.010302 0.289856 204 51 127
0.390326 0.062786 -0.237203 255 0 0
-0.021799 -0.026701 0.213366 204 51 127
-0.510265 -0.026802 0.053357 0 0 255
-0.823205 -0.059033 -0.009684 153 0 76
0.218908 0.026349 0.042030 204 51 127
0.413091 0.053758 0.178891 204 51 127
0.017235 -0.015026 -0.273301 255 0 0
-0.666439 -0.043205 -0.006256 0 0 255
0.400213 0.000818 0.222237 204 51 127
0.159862 -0.009359 -0.004269 255 0 0
-0.141107 -0.032207 -0.099367 255 0 0
0.456878 0.033359 -0.091757 255 0 0
-0.203232 -0.010264 -0.080902 255 0 0
-0.124845 -0.038229 0.071748 204 51 127
0.405103 0.042612 0.104702 204 51 127
0.118755 0.030073 0.097293 204 51 127
0.232898 0.018050 0.269285 204 51 127
-0.044465 0.008382 -0.215218 255 0 0
0.318001 0.030195 -0.036253 255 0 0
0.439566 0.019866 0.216458 204 51 127
-0.362698 -0.026091 0.004746 0 0 255
-0.257398 -0.013057 -0.028306 0 0 255
-0.004301 -0.034615 0.244405 204 51 127
-0.215783 -0.018206 0.005059 204 51 127
-0.707218 -0.037942 0.026168 0 0 255
0.376502 0.011006 -0.244499 255 0 0
0.176915 0.051375 -0.280326 255 0 0
-0.000081 0.000476 0.240187 204 51 127
0.259784 0.015835 0.291887 204 51 127
0.040588 -0.007701 0.255699 204 51 127
-0.502107 -0.031494 -0.037389 0 0 255
-0.547383 -0.036576 -0.009688 153 0 76
-0.710805 -0.052780 0.014974 153 0 76
0.173225 -0.015505 0.283692 204 51 127
0.221321 0.012949 0.309921 204 51 127
0.341419 0.051784 0.263052 204 51 127
-0.131338 -0.021690 0.027181 204 51 127
-0.733894 -0.054137 -0.016608 153 0 76
-0.775383 -0.048854 0.040206 0 0 255
0.149106 -0.012349 0.303979 204 51 127
0.256156 -0.001164 0.310438 204 51 127
-0.366767 -0.034632 -0.063898 153 0 76
-0.029073 -0.012175 -0.208021 255 0 0
-0.215039 -0.026069 0.102585 153 0 76
0.018546 -0.008818 -0.104617 255 0 0
-0.713468 -0.041335 -0.017486 153 0 76
0.349934 0.048846 -0.258276 255 0 0
-0.005998 0.001533 -0.107722 255 0 0
0.429618 0.043959 -0.211316 255 0 0
-0.387635 -0.011952 -0.013113 76 0 153
0.257679 0.040988 0.093879 204 51 127
0.111354 -0.006969 -0.043686 255 0 0
