ply
format ascii 1.0
element vertex 1287
property float x
property float y
property float z
property uchar red
property uchar green
property uchar blue
end_header
-0.196598 0.505066 0.346997 0 255 0
0.235101 0.151268 -0.142920 76 0 153
0.228496 -0.195518 -0.443401 76 0 153
0.234770 0.213043 -0.130114 76 0 153
0.209405 0.379360 -0.421995 0 255 0
-0.249378 -0.651525 -0.040005 76 0 153
-0.123889 0.581700 -0.424929 0 255 0
0.066166 0.484935 0.239349 0 255 0
-0.028140 0.302164 0.016910 0 255 0
-0.016449 -0.104551 0.319138 76 0 153
-0.143506 0.581700 -0.406153 0 255 0
-0.140259 0.568762 0.290897 0 255 0
0.118935 0.269858 0.134412 76 0 153
0.183738 0.061282 0.564829 76 0 153
-0.004862 -0.712818 -0.481421 76 0 153
0.079668 -0.049315 0.894392 153 76 0
0.190645 0.581700 -0.390063 0 255 0
0.158240 0.470053 0.122541 0 255 0
0.131124 -0.654529 0.018406 76 0 153
-0.228788 0.342883 -0.009358 0 255 0
-0.080269 -0.215557 0.093045 76 0 153
-0.199887 0.581663 -0.002524 0 255 0
-0.252214 0.169990 -0.089089 76 0 153
-0.061723 -0.784143 0.018548 76 0 153
-0.039262 0.218290 0.482053 76 0 153
-0.152607 0.581666 -0.001011 0 255 0
0.241961 -0.688301 -0.324597 76 0 153
0.150012 -0.293256 -0.481055 76 0 153
-0.259271 -0.208864 -0.172968 76 0 153
-0.241744 0.107801 0.223439 76 0 153
-0.017519 -0.121603 0.921157 153 76 0
0.165101 0.069215 0.770085 76 0 153
-0.045848 -0.103358 0.452174 76 0 153
0.240714 0.574808 -0.408155 0 255 0
-0.093652 0.581690 -0.177010 0 255 0
-0.094562 0.242261 0.379665 76 0 153
-0.184876 0.493221 0.281982 0 255 0
-0.073469 0.261115 0.201064 76 0 153
0.199303 -0.033276 0.406367 76 0 153
-0.105181 0.564092 0.338409 0 255 0
-0.081299 -0.104694 0.279749 76 0 153
0.004572 -0.140163 -0.481421 76 0 153
-0.202179 -0.629685 0.010925 76 0 153
0.156341 -0.870504 -0.480687 76 0 153
0.168721 0.502647 -0.477553 0 255 0
0.239876 0.006775 -0.267205 76 0 153
0.051806 -0.078064 0.700441 153 76 0
-0.152074 -0.088790 0.597572 76 0 153
-0.108331 0.257242 0.241570 76 0 153
0.006360 -0.169455 0.875864 153 76 0
-0.012712 -0.085693 -0.481421 76 0 153
0.046500 -0.620644 -0.481421 76 0 153
-0.116885 0.486355 0.633063 0 255 0
-0.224000 -0.684506 -0.468419 76 0 153
0.235979 -0.406039 -0.159925 76 0 153
-0.020312 -0.480701 -0.508964 76 0 153
-0.102416 0.257733 0.271994 76 0 153
0.111706 -0.102727 0.294667 76 0 153
0.030358 -0.380090 -0.504742 76 0 153
0.094465 0.581690 -0.127340 0 255 0
0.239513 0.508383 -0.308441 0 255 0
-0.015603 0.526497 0.594178 0 255 0
-0.002427 -0.411256 0.018761 76 0 153
-0.188362 0.273848 -0.391019 76 0 153
-0.197298 0.442046 0.068317 0 255 0
-0.263780 -0.722697 -0.297106 76 0 153
0.049880 -0.829092 -0.481421 76 0 153
0.004907 0.581700 -0.439853 0 255 0
-0.239683 0.127868 0.194007 76 0 153
0.115878 0.581698 -0.321600 0 255 0
-0.253801 0.227677 -0.022760 76 0 153
0.155441 -0.839094 0.016943 76 0 153
-0.181760 0.269879 -0.088863 76 0 153
-0.252090 0.094545 0.023793 76 0 153
0.090697 0.473865 -0.479425 0 255 0
-0.011211 0.056392 0.840414 153 76 0
0.049292 0.581687 -0.158162 0 255 0
-0.068842 -0.099536 0.341267 76 0 153
-0.265295 0.560486 -0.390541 0 255 0
-0.128918 0.023200 -0.481421 76 0 153
0.074711 0.271782 0.094430 76 0 153
-0.072170 0.581688 -0.160437 0 255 0
-0.008011 0.072128 0.768765 153 76 0
-0.138475 0.371451 -0.405031 0 255 0
0.153019 0.581700 -0.348241 0 255 0
-0.223075 0.365764 -0.392835 0 255 0
0.116025 -0.856533 -0.481421 76 0 153
-0.244321 0.581700 -0.365190 0 255 0
-0.209673 -0.026584 0.542896 76 0 153
0.230845 0.514860 -0.119884 0 255 0
-0.165696 0.297188 -0.398317 76 0 153
-0.186506 0.581699 -0.177548 0 255 0
-0.257152 0.128282 -0.114608 76 0 153
-0.265729 -0.504150 -0.400977 76 0 153
-0.238628 0.035241 0.206526 76 0 153
-0.178610 0.256094 0.285450 76 0 153
-0.065976 -0.099350 0.556766 76 0 153
0.113178 -0.377863 -0.481421 76 0 153
-0.219300 0.081731 0.446705 76 0 153
-0.190877 -0.080374 0.415894 76 0 153
0.228295 -0.072207 -0.058495 76 0 153
-0.175728 -0.731445 0.017359 76 0 153
-0.083903 0.243844 -0.481394 76 0 153
-0.197463 0.554548 0.419668 0 255 0
-0.257068 -0.196060 -0.112319 76 0 153
-0.245912 0.051116 0.153967 76 0 153
-0.081199 -0.114975 -0.481421 76 0 153
0.028483 0.248818 0.335562 76 0 153
-0.130188 -0.036274 0.856259 76 0 153
-0.224535 -0.524491 -0.002945 76 0 153
0.108028 -0.537636 0.018548 76 0 153
0.206580 0.273702 -0.126658 76 0 153
0.131468 0.471560 0.136899 0 255 0
0.103498 0.330530 -0.049463 76 0 153
0.235939 -0.872211 -0.160831 76 0 153
0.195758 0.039025 0.484476 76 0 153
-0.233755 0.290288 -0.279172 76 0 153
0.171107 -0.041056 0.689776 76 0 153
0.157786 0.354569 -0.122599 76 0 153
-0.257815 0.411119 -0.209286 0 255 0
-0.134644 0.273887 -0.147809 76 0 153
0.234987 -0.326278 -0.132616 76 0 153
0.119386 0.527425 0.589303 0 255 0
0.172510 0.278624 -0.096576 76 0 153
-0.027277 0.086224 -0.481421 76 0 153
-0.259894 0.228032 -0.426654 76 0 153
-0.265703 -0.642679 -0.350037 76 0 153
0.172231 0.385735 -0.282310 76 0 153
-0.025754 0.542033 0.505086 0 255 0
0.059790 -0.209666 0.093253 76 0 153
0.074700 0.273482 -0.145487 76 0 153
-0.112920 0.581680 -0.030346 0 255 0
0.150801 0.273553 -0.365494 76 0 153
-0.003941 0.007472 -0.481421 76 0 153
-0.020885 0.025080 0.889097 153 76 0
-0.006799 -0.847895 0.017780 76 0 153
0.235209 -0.474571 -0.138714 76 0 153
0.093507 -0.154502 0.155629 76 0 153
0.125608 0.282909 -0.049896 76 0 153
0.076441 0.119744 0.810581 76 0 153
-0.145485 -0.861205 -0.481421 76 0 153
0.236723 -0.177188 -0.180415 76 0 153
-0.264935 0.385490 -0.380947 0 255 0
-0.035308 0.400809 -0.467997 0 255 0
-0.166033 0.485684 0.443224 0 255 0
0.076408 0.019179 0.787363 153 76 0
-0.162302 0.146760 0.735470 76 0 153
-0.238372 0.048855 0.262520 76 0 153
0.094048 -0.099680 0.452814 76 0 153
-0.158094 0.344236 -0.083676 76 0 153
0.127253 0.244324 0.341091 76 0 153
-0.188267 -0.139734 0.175683 76 0 153
0.039541 0.038693 0.814189 153 76 0
0.240487 -0.539344 -0.284017 76 0 153
-0.230216 0.260589 0.153122 76 0 153
-0.250200 0.017770 -0.444789 76 0 153
-0.097426 0.273887 -0.226303 76 0 153
-0.066266 -0.669169 -0.481421 76 0 153
-0.264607 -0.092327 -0.409216 76 0 153
0.237621 0.443337 -0.264002 0 255 0
-0.069818 0.201083 0.570551 76 0 153
-0.253270 -0.019903 -0.008102 76 0 153
-0.261388 -0.498086 -0.231247 76 0 153
-0.116178 0.214906 -0.481421 76 0 153
0.239638 0.081340 -0.264430 76 0 153
0.204773 0.537691 0.179666 0 255 0
-0.135712 0.484935 0.247823 0 255 0
-0.223789 0.124520 -0.468553 76 0 153
0.215800 0.063718 0.207886 76 0 153
0.139928 -0.123924 0.220445 76 0 153
-0.036887 -0.064413 0.667135 76 0 153
0.181269 -0.071360 0.381720 76 0 153
0.243483 -0.629317 -0.395827 76 0 153
0.229104 -0.034434 -0.081036 76 0 153
-0.058408 -0.454925 0.017636 76 0 153
-0.211847 -0.630309 -0.474338 76 0 153
0.185216 -0.006766 0.612933 76 0 153
-0.241282 0.581700 -0.272058 0 255 0
-0.208324 0.066903 -0.475441 76 0 153
-0.048076 0.162314 0.690171 76 0 153
-0.173147 0.488094 0.386289 0 255 0
-0.169184 -0.133512 0.196852 76 0 153
-0.095495 -0.025019 -0.481421 76 0 153
-0.096337 -0.805857 0.018548 76 0 153
0.184045 -0.109072 0.215207 76 0 153
0.103873 0.273720 -0.367576 76 0 153
-0.142319 0.390227 -0.369112 76 0 153
0.238743 -0.652204 -0.236000 76 0 153
-0.262798 0.474314 -0.322044 0 255 0
-0.051907 0.576567 0.184465 0 255 0
-0.091951 0.010914 0.803177 153 76 0
-0.145568 0.273629 -0.369722 76 0 153
0.238568 -0.491191 -0.231184 76 0 153
-0.046886 -0.660247 0.018548 76 0 153
0.083204 0.273887 -0.238629 76 0 153
0.131973 -0.341225 -0.481421 76 0 153
-0.257170 0.248336 -0.116801 76 0 153
-0.116468 -0.793924 -0.481421 76 0 153
0.135100 0.581696 -0.094765 0 255 0
-0.262408 -0.490603 -0.259330 76 0 153
-0.257600 -0.369818 -0.126957 76 0 153
0.058913 0.269872 -0.030257 76 0 153
-0.197134 0.507898 0.390353 0 255 0
-0.111149 -0.079077 -0.481421 76 0 153
0.048286 -0.130133 0.828547 153 76 0
0.239213 -0.332312 -0.248936 76 0 153
-0.121620 0.484935 0.374125 0 255 0
-0.260722 -0.000105 -0.212910 76 0 153
0.153217 -0.047391 0.829413 76 0 153
0.091934 0.517281 0.641466 0 255 0
-0.039770 0.236454 0.390009 76 0 153
-0.003942 -0.642276 0.018381 76 0 153
-0.068920 -0.252841 0.065938 76 0 153
-0.119336 0.057616 -0.481421 76 0 153
0.185617 -0.855017 0.007955 76 0 153
-0.028724 -0.372217 0.022339 76 0 153
0.021678 0.530812 0.571369 0 255 0
0.121670 0.400870 -0.468128 0 255 0
0.004659 0.542182 0.504136 0 255 0
0.234568 -0.288534 -0.432618 76 0 153
0.113929 0.440460 0.084930 0 255 0
-0.070691 -0.097057 0.634500 76 0 153
-0.171786 -0.600302 -0.481090 76 0 153
0.103418 -0.122728 0.227039 76 0 153
0.242887 -0.771919 -0.350103 76 0 153
0.070889 -0.132919 0.922808 153 76 0
-0.180280 -0.066587 0.653859 76 0 153
-0.007109 0.554650 -0.479425 0 255 0
0.237828 0.087035 -0.212134 76 0 153
-0.215671 0.013344 0.518452 76 0 153
0.104534 0.581695 -0.231648 0 255 0
0.241419 -0.656875 -0.411667 76 0 153
-0.248155 -0.574812 -0.036671 76 0 153
0.048371 -0.158833 0.149539 76 0 153
-0.265120 -0.801676 -0.333975 76 0 153
0.027137 -0.004633 0.690131 76 0 153
-0.243386 -0.485385 -0.026048 76 0 153
-0.263933 -0.575175 -0.301332 76 0 153
0.144523 0.578044 0.157426 0 255 0
0.243384 0.134239 -0.386244 76 0 153
-0.195624 -0.013060 0.682779 76 0 153
-0.227419 0.547394 0.228837 0 255 0
0.101477 0.581689 -0.031817 0 255 0
-0.241772 0.447177 0.010649 0 255 0
-0.238430 0.273094 -0.097871 76 0 153
0.215977 0.098334 0.262738 76 0 153
-0.046164 0.484935 0.429692 0 255 0
0.166011 -0.002994 0.744600 76 0 153
0.155032 0.493430 0.516789 0 255 0
-0.227706 0.267658 -0.311511 76 0 153
-0.097563 0.273887 -0.259315 76 0 153
-0.209997 0.183757 0.587419 76 0 153
0.039990 -0.103358 0.464499 76 0 153
-0.139039 -0.187495 -0.481421 76 0 153
-0.008297 0.273674 -0.250779 76 0 153
0.054494 -0.614876 0.018548 76 0 153
-0.151279 0.464671 0.121999 0 255 0
-0.081953 0.150475 0.738035 76 0 153
0.241730 0.375608 -0.370279 0 255 0
-0.201375 0.128264 0.671920 76 0 153
-0.208536 0.401048 0.029138 0 255 0
-0.227838 0.204316 0.416005 76 0 153
-0.249663 0.562253 -0.047593 0 255 0
0.037438 0.092212 0.884282 76 0 153
0.215385 -0.227981 0.034653 76 0 153
-0.006064 0.292693 -0.003937 76 0 153
-0.203643 -0.816933 0.010083 76 0 153
0.238576 -0.015779 -0.422634 76 0 153
-0.261912 0.199581 -0.245663 76 0 153
0.156767 0.257649 0.237801 76 0 153
0.196577 -0.476374 -0.470890 76 0 153
-0.103158 0.147733 -0.481421 76 0 153
0.022207 0.581688 -0.171001 0 255 0
-0.197959 0.371969 -0.406143 0 255 0
0.224491 0.107705 -0.448396 76 0 153
-0.186786 0.567207 0.308111 0 255 0
0.200339 -0.340070 -0.468969 76 0 153
0.220010 -0.093393 0.115360 76 0 153
-0.152964 0.566664 0.314121 0 255 0
-0.187554 0.544672 0.488261 0 255 0
0.199200 0.228426 0.366232 76 0 153
0.213908 0.225356 0.300339 76 0 153
0.015419 0.476146 0.150517 0 255 0
0.027433 0.570353 0.273236 0 255 0
-0.246611 -0.393618 -0.031837 76 0 153
0.193698 0.273887 -0.193231 76 0 153
0.001606 0.215449 0.512514 76 0 153
0.219863 -0.078394 -0.453529 76 0 153
0.243512 -0.818768 -0.394643 76 0 153
0.161379 0.106031 0.807837 76 0 153
0.148356 0.272985 0.057843 76 0 153
0.021488 -0.213149 -0.481421 76 0 153
0.043632 -0.701423 -0.481421 76 0 153
-0.139523 0.369992 -0.082624 76 0 153
-0.047590 0.522246 0.616499 0 255 0
-0.119670 0.105575 -0.481421 76 0 153
-0.171699 -0.587008 0.017607 76 0 153
0.113338 -0.098645 0.680661 76 0 153
0.035205 -0.481924 0.018548 76 0 153
0.187635 0.519795 0.304113 0 255 0
-0.086243 0.304488 0.017092 0 255 0
-0.053302 0.135911 -0.481421 76 0 153
0.235113 -0.853555 -0.136077 76 0 153
-0.257037 0.298699 -0.181287 0 255 0
-0.192074 -0.393598 0.015657 76 0 153
-0.251558 0.546529 -0.079887 0 255 0
0.083267 0.263119 0.222929 76 0 153
0.042287 0.485072 0.627422 0 255 0
0.070847 0.581700 -0.413592 0 255 0
0.030433 0.060589 0.739035 153 76 0
-0.262680 -0.661576 -0.266818 76 0 153
0.238011 -0.668868 -0.215871 76 0 153
0.135429 -0.111182 0.263161 76 0 153
-0.115790 0.245801 0.332199 76 0 153
-0.263501 0.527008 -0.408417 0 255 0
0.083455 -0.781722 -0.481421 76 0 153
0.020121 0.413627 0.058317 0 255 0
0.004511 -0.871859 -0.481351 76 0 153
-0.026552 0.484935 0.449491 0 255 0
0.179103 -0.229763 -0.477367 76 0 153
-0.167768 -0.071073 0.704956 76 0 153
0.082543 0.297838 -0.026976 76 0 153
-0.232122 0.581700 -0.244766 0 255 0
-0.232718 -0.019268 0.287455 76 0 153
-0.252011 -0.734805 -0.047974 76 0 153
0.136436 0.484935 0.230289 0 255 0
0.179103 0.077296 0.612010 76 0 153
0.016372 -0.052472 -0.481421 76 0 153
0.229276 -0.111225 0.023451 76 0 153
-0.053719 -0.332008 -0.483830 76 0 153
-0.264518 -0.459348 -0.317417 76 0 153
-0.246199 0.083151 0.069947 76 0 153
-0.058851 -0.143079 0.181789 76 0 153
0.026667 -0.167675 -0.481421 76 0 153
0.080167 0.273846 -0.301746 76 0 153
-0.088269 -0.099498 0.489619 76 0 153
-0.139600 0.273869 -0.403176 76 0 153
-0.261625 -0.294923 -0.237774 76 0 153
-0.262944 -0.125132 -0.274103 76 0 153
-0.242197 0.344852 -0.347984 0 255 0
0.226527 -0.090234 -0.010084 76 0 153
0.223389 0.125473 0.069826 76 0 153
0.155298 0.489324 0.271660 0 255 0
-0.000507 0.580245 0.099844 0 255 0
0.134878 -0.080921 0.773243 76 0 153
0.115890 0.495576 0.645678 0 255 0
0.087848 -0.005096 0.760158 153 76 0
0.172760 -0.315792 0.029707 76 0 153
0.040793 0.289492 -0.009528 76 0 153
-0.094046 -0.038063 0.677348 76 0 153
-0.141427 -0.361104 0.024020 76 0 153
0.111655 0.558482 0.387949 0 255 0
0.022533 -0.544004 -0.481421 76 0 153
0.021191 0.041246 0.707401 76 0 153
-0.220354 0.534353 0.266195 0 255 0
-0.246545 0.115748 0.061671 76 0 153
-0.264562 0.483158 -0.399187 0 255 0
0.220906 0.258864 0.157936 76 0 153
0.100210 -0.098004 0.731727 76 0 153
0.243130 -0.276927 -0.393871 76 0 153
0.020622 0.101442 0.865963 76 0 153
0.033244 -0.173529 0.912180 153 76 0
-0.103300 0.581692 -0.198829 0 255 0
0.073961 0.381135 -0.425802 0 255 0
-0.046981 0.517184 -0.479425 0 255 0
-0.218264 0.209628 0.490843 76 0 153
0.139958 -0.091692 0.474958 76 0 153
0.229239 0.013750 -0.084770 76 0 153
-0.155054 0.431062 -0.479425 0 255 0
0.236355 -0.823250 -0.170286 76 0 153
0.241071 0.469613 -0.351820 0 255 0
0.112730 0.481047 0.170360 0 255 0
-0.243486 -0.799425 -0.026212 76 0 153
0.042596 0.265423 0.196995 76 0 153
0.204553 -0.696335 -0.006327 76 0 153
0.199527 -0.216400 -0.469390 76 0 153
-0.002221 0.581047 0.067245 0 255 0
0.144543 -0.438610 -0.481238 76 0 153
0.232756 0.487586 -0.157685 0 255 0
-0.103614 -0.053567 0.773833 153 76 0
-0.045584 0.075034 0.774047 153 76 0
-0.244588 -0.056489 0.169048 76 0 153
0.033004 0.581681 -0.003889 0 255 0
-0.173498 -0.081548 0.534480 76 0 153
-0.200671 0.518255 0.453415 0 255 0
-0.184992 -0.485800 -0.480284 76 0 153
0.185031 0.105855 0.565699 76 0 153
-0.258697 -0.066479 -0.157173 76 0 153
-0.059109 -0.297642 -0.481421 76 0 153
-0.255632 -0.158569 -0.072750 76 0 153
-0.167123 -0.095222 0.375022 76 0 153
-0.236413 -0.034725 0.237604 76 0 153
-0.154045 -0.748677 0.018402 76 0 153
-0.261906 -0.229772 -0.245509 76 0 153
0.140865 -0.687878 0.018119 76 0 153
-0.070915 0.535428 -0.479425 0 255 0
0.201090 -0.297455 -0.468360 76 0 153
-0.083348 -0.123866 0.213636 76 0 153
0.190120 0.174388 0.529723 76 0 153
-0.266307 0.183060 -0.394879 76 0 153
0.078477 0.250414 0.298910 76 0 153
-0.147468 0.417009 0.061335 0 255 0
0.156667 0.265333 0.144822 76 0 153
0.044688 0.554538 0.419864 0 255 0
-0.024049 0.137898 -0.481421 76 0 153
0.240274 -0.030583 -0.278170 76 0 153
-0.264313 0.081743 -0.311781 76 0 153
-0.228243 -0.179901 0.086317 76 0 153
-0.041240 0.183755 -0.481421 76 0 153
-0.156081 -0.646057 0.018361 76 0 153
0.083666 0.273887 -0.348346 76 0 153
-0.195435 0.564998 0.329989 0 255 0
-0.071993 0.272964 0.058865 76 0 153
0.135501 0.148550 0.743695 76 0 153
-0.251310 0.013757 -0.064070 76 0 153
0.076859 0.484935 0.259725 0 255 0
-0.062989 -0.862005 -0.481421 76 0 153
0.228146 0.339159 -0.067884 0 255 0
0.233705 -0.586309 -0.097310 76 0 153
0.194681 0.269791 0.015185 76 0 153
0.220502 -0.029238 0.127797 76 0 153
0.225791 0.485641 -0.037832 0 255 0
0.078706 0.558397 0.388599 0 255 0
0.235070 -0.659004 -0.141052 76 0 153
0.120363 0.484935 0.425668 0 255 0
0.085263 0.240818 0.386948 76 0 153
-0.168105 0.542212 0.503943 0 255 0
-0.167961 0.160757 0.693291 76 0 153
-0.021493 0.569810 0.279260 0 255 0
0.049696 -0.103409 0.351695 76 0 153
0.009116 -0.250031 0.067631 76 0 153
-0.066881 -0.099350 0.429381 76 0 153
-0.148904 -0.080381 0.807417 76 0 153
-0.233675 0.003703 0.271949 76 0 153
0.232852 -0.303340 -0.078432 76 0 153
0.104606 0.570383 -0.479425 0 255 0
0.224664 0.564976 -0.012551 0 255 0
0.231900 -0.199554 -0.060258 76 0 153
-0.123942 0.262081 0.190801 76 0 153
0.241601 -0.017727 -0.326933 76 0 153
-0.025838 0.269156 0.049361 76 0 153
0.019469 0.085195 0.751312 153 76 0
0.239771 -0.406563 -0.264318 76 0 153
-0.094130 0.006116 0.693984 76 0 153
-0.257751 0.388233 -0.207973 0 255 0
0.220971 -0.162723 0.068987 76 0 153
0.053909 0.387544 0.040881 0 255 0
0.008873 0.571968 0.253145 0 255 0
-0.102344 0.469402 0.131710 0 255 0
-0.266424 0.040884 -0.371933 76 0 153
-0.249575 -0.318644 -0.027764 76 0 153
0.202478 0.208372 0.442825 76 0 153
-0.106580 0.269873 -0.033205 76 0 153
-0.211883 -0.028563 0.513190 76 0 153
-0.213508 0.007626 0.545758 76 0 153
0.094115 -0.059815 0.785088 153 76 0
0.179246 -0.473933 0.010896 76 0 153
0.199563 0.516490 0.142241 0 255 0
-0.005583 0.270098 0.131031 76 0 153
0.068200 0.484935 0.409987 0 255 0
0.008129 0.027747 0.878452 153 76 0
-0.079182 0.267526 0.103628 76 0 153
0.035719 -0.391743 0.019719 76 0 153
0.206358 -0.024357 0.382005 76 0 153
0.235195 -0.230011 -0.139860 76 0 153
0.216900 0.128055 0.252720 76 0 153
-0.252892 0.475555 -0.111917 0 255 0
-0.149693 0.484935 0.611231 0 255 0
-0.226130 0.162204 0.429120 76 0 153
0.065872 0.106881 0.853003 76 0 153
-0.184928 0.581699 -0.226933 0 255 0
0.219241 0.563293 0.063206 0 255 0
0.021605 0.273887 -0.415906 76 0 153
-0.015940 0.349821 0.024836 0 255 0
-0.066457 -0.013916 0.942468 153 76 0
-0.062483 0.273887 -0.193459 76 0 153
0.210841 0.273220 -0.377867 76 0 153
0.016812 0.067105 0.801671 153 76 0
0.121177 0.581698 -0.268940 0 255 0
-0.077409 -0.046644 -0.481421 76 0 153
0.011324 -0.684568 0.018049 76 0 153
-0.194397 0.529709 0.553170 0 255 0
-0.039332 -0.061386 0.944272 153 76 0
-0.055517 0.501002 0.648753 0 255 0
0.176114 -0.666839 -0.477965 76 0 153
0.225537 0.142090 0.016544 76 0 153
0.093084 0.484935 0.335716 0 255 0
-0.160543 0.323821 0.018826 0 255 0
0.010325 -0.025308 0.677966 76 0 153
0.226258 -0.332812 -0.446220 76 0 153
0.165750 0.034499 0.733795 76 0 153
0.018262 0.082641 -0.481421 76 0 153
0.052216 0.269879 -0.082120 76 0 153
-0.116933 -0.076861 0.736275 153 76 0
-0.219859 0.558167 0.331614 0 255 0
-0.149352 -0.737516 -0.481421 76 0 153
0.110917 -0.629417 0.018548 76 0 153
0.165410 -0.066333 0.551037 76 0 153
-0.018849 0.574914 0.213216 0 255 0
-0.174510 0.190571 0.609362 76 0 153
0.030518 -0.856581 -0.481421 76 0 153
-0.016090 0.269878 -0.056356 76 0 153
-0.040232 -0.026073 0.951532 153 76 0
0.234019 -0.026001 -0.111570 76 0 153
0.220901 0.248134 0.058028 76 0 153
0.087322 -0.624507 0.018548 76 0 153
-0.036629 -0.101866 0.928734 153 76 0
-0.169047 -0.780352 0.017780 76 0 153
-0.125730 0.155032 0.724462 76 0 153
-0.213307 0.334220 -0.290453 76 0 153
0.032375 0.009057 0.903090 153 76 0
0.094853 0.580860 0.074671 0 255 0
-0.220079 0.159620 0.460121 76 0 153
-0.105474 0.031038 0.730946 153 76 0
-0.049936 0.390285 -0.445427 0 255 0
-0.032153 0.255219 0.292493 76 0 153
-0.042883 0.013774 0.905033 153 76 0
-0.254618 -0.154947 -0.044868 76 0 153
0.234036 -0.520249 -0.106427 76 0 153
-0.265740 -0.013843 -0.400804 76 0 153
0.040517 0.264850 0.152632 76 0 153
0.215134 -0.000256 0.269723 76 0 153
-0.260599 -0.063808 -0.209527 76 0 153
0.159331 -0.609207 -0.480501 76 0 153
-0.031862 0.271973 0.084962 76 0 153
-0.111294 -0.410651 -0.481421 76 0 153
-0.264761 0.486646 -0.375640 0 255 0
-0.079823 0.229924 0.425194 76 0 153
-0.102360 -0.756692 0.018548 76 0 153
-0.134477 0.273887 -0.236218 76 0 153
-0.096424 0.575916 -0.479425 0 255 0
-0.200455 0.273775 0.012518 76 0 153
-0.002036 0.581685 -0.129471 0 255 0
0.145676 0.548055 0.466170 0 255 0
0.030497 -0.406769 -0.488416 76 0 153
0.242341 0.044229 -0.344524 76 0 153
0.228086 0.462586 -0.077057 0 255 0
0.235529 -0.381977 -0.147525 76 0 153
-0.246762 0.154183 0.141385 76 0 153
0.226640 0.036950 0.086289 76 0 153
0.170530 0.142476 0.730690 76 0 153
0.233368 -0.226829 -0.101027 76 0 153
-0.009220 -0.309532 -0.481421 76 0 153
0.183776 0.532795 0.448490 0 255 0
0.095944 0.385182 0.039686 0 255 0
-0.226578 0.577916 0.160621 0 255 0
-0.071528 0.477270 0.153798 0 255 0
0.124754 -0.275415 0.053199 76 0 153
-0.147134 0.576821 0.180084 0 255 0
-0.126240 0.216747 0.488905 76 0 153
-0.249254 0.231352 -0.000882 76 0 153
0.136997 0.581334 0.050106 0 255 0
0.234911 0.182327 -0.132241 76 0 153
-0.136167 0.480090 0.165444 0 255 0
0.234635 0.581643 -0.308549 0 255 0
-0.049509 -0.103373 0.354165 76 0 153
0.229763 0.079276 0.003725 76 0 153
0.241773 0.125780 -0.319443 76 0 153
0.022107 0.581690 -0.225461 0 255 0
0.001756 0.581415 0.039984 0 255 0
-0.126403 -0.125532 -0.481421 76 0 153
-0.097159 -0.085163 0.805849 153 76 0
-0.033553 0.286057 -0.459991 76 0 153
-0.251866 -0.876360 -0.047769 76 0 153
-0.265817 0.062683 -0.353188 76 0 153
-0.128693 0.551896 -0.479425 0 255 0
-0.127830 0.470270 0.133492 0 255 0
-0.261522 0.396639 -0.293309 0 255 0
-0.210381 0.069000 0.530023 76 0 153
-0.002742 0.183968 0.632560 76 0 153
-0.121297 0.484935 0.346276 0 255 0
-0.249381 0.166713 0.088745 76 0 153
0.144481 0.581697 -0.150224 0 255 0
0.065130 -0.400309 0.018929 76 0 153
-0.193965 0.470700 0.107616 0 255 0
-0.154667 -0.089014 0.575147 76 0 153
0.235808 -0.780907 -0.155210 76 0 153
-0.035191 0.536683 0.537558 0 255 0
-0.145908 0.581697 -0.248710 0 255 0
-0.245183 0.299261 -0.039260 0 255 0
0.242075 -0.263187 -0.355295 76 0 153
-0.148803 0.378896 0.036510 0 255 0
-0.209580 -0.375951 0.010245 76 0 153
0.063178 -0.101413 0.922065 153 76 0
0.043656 0.581685 -0.130472 0 255 0
-0.178208 0.093718 0.852758 76 0 153
-0.251986 -0.361141 -0.043678 76 0 153
0.192460 0.070537 0.522928 76 0 153
0.032152 0.581681 -0.051390 0 255 0
-0.260030 -0.734746 -0.193861 76 0 153
0.013951 0.257528 0.238923 76 0 153
-0.152746 -0.101482 0.400720 76 0 153
-0.182995 0.005868 0.825957 76 0 153
-0.168017 -0.214924 -0.481216 76 0 153
-0.149746 0.581698 -0.288915 0 255 0
0.070386 -0.104364 0.322012 76 0 153
-0.251927 0.008865 0.028000 76 0 153
0.178237 -0.669036 0.011471 76 0 153
0.196612 0.105622 0.488262 76 0 153
0.115562 -0.378194 0.021303 76 0 153
0.243799 -0.517969 -0.380921 76 0 153
-0.264704 -0.567705 -0.322546 76 0 153
-0.024730 -0.103358 0.584560 76 0 153
-0.016050 -0.024058 0.953550 153 76 0
-0.109968 -0.511310 -0.481421 76 0 153
0.157424 -0.058296 0.736573 76 0 153
-0.223275 0.053760 0.438145 76 0 153
-0.240356 0.064947 0.240111 76 0 153
-0.217063 0.581700 -0.298325 0 255 0
0.141896 -0.097706 0.430863 76 0 153
-0.221360 0.269948 -0.011722 76 0 153
0.238268 0.148754 -0.225725 76 0 153
-0.253723 0.431820 -0.130114 0 255 0
-0.104663 0.094951 0.869050 76 0 153
-0.258193 -0.800932 -0.143291 76 0 153
-0.098278 -0.023404 0.855246 153 76 0
-0.101736 -0.467270 0.017975 76 0 153
-0.119199 -0.103264 0.498960 76 0 153
0.239103 -0.580413 -0.245923 76 0 153
-0.156559 0.262963 0.224667 76 0 153
0.034044 -0.020455 0.707925 153 76 0
0.155506 0.048985 -0.480794 76 0 153
-0.000136 -0.294680 -0.565294 76 0 153
0.241734 -0.594890 -0.409827 76 0 153
0.239674 0.481356 -0.313402 0 255 0
-0.081518 -0.127755 0.909910 153 76 0
-0.231752 -0.371210 -0.463227 76 0 153
-0.260150 -0.292066 -0.426133 76 0 153
0.171725 0.246428 0.328260 76 0 153
-0.265176 -0.004007 -0.335535 76 0 153
0.052662 -0.735001 0.018134 76 0 153
-0.041955 0.573311 0.235012 0 255 0
-0.002397 0.320918 -0.454278 76 0 153
0.220555 0.046576 0.127414 76 0 153
0.240237 -0.189265 -0.301217 76 0 153
0.092975 -0.574193 0.018548 76 0 153
0.094115 -0.057413 0.713394 153 76 0
-0.106641 0.499407 0.648134 0 255 0
-0.073582 0.099308 0.861417 76 0 153
0.082897 -0.025347 0.773017 153 76 0
0.198006 0.167238 0.445898 76 0 153
-0.258522 -0.703925 -0.152337 76 0 153
0.058893 0.327234 -0.025664 76 0 153
-0.255665 -0.113768 -0.073673 76 0 153
-0.251693 0.448844 -0.437826 0 255 0
0.241309 -0.535955 -0.306655 76 0 153
-0.156700 0.481766 0.174211 0 255 0
-0.163968 -0.658431 -0.481351 76 0 153
-0.256836 -0.061281 -0.105927 76 0 153
-0.203825 0.068426 0.594997 76 0 153
-0.264135 -0.143350 -0.306884 76 0 153
0.238978 -0.150614 -0.421084 76 0 153
-0.257744 0.037954 -0.130913 76 0 153
0.215747 0.040855 0.207697 76 0 153
0.003973 0.228491 0.452340 76 0 153
-0.251992 0.270946 -0.227835 76 0 153
0.201229 -0.115403 -0.468389 76 0 153
-0.056427 -0.226764 -0.481421 76 0 153
-0.014922 0.112925 0.827899 76 0 153
0.096551 0.269594 0.026667 76 0 153
-0.131766 -0.105102 0.310655 76 0 153
0.045320 0.273545 -0.155931 76 0 153
-0.076971 0.385540 -0.435248 0 255 0
-0.188956 0.581544 0.021626 0 255 0
-0.216385 0.273887 -0.253840 76 0 153
0.119901 -0.099779 0.325786 76 0 153
-0.244516 0.239377 0.085111 76 0 153
-0.068172 0.531016 0.570204 0 255 0
0.114176 0.235146 0.418633 76 0 153
0.211850 0.072158 0.262803 76 0 153
-0.100208 -0.581063 -0.481421 76 0 153
0.109720 -0.480327 -0.481421 76 0 153
-0.164587 -0.094692 0.421744 76 0 153
0.238569 -0.282484 -0.231251 76 0 153
0.151460 0.217324 0.486355 76 0 153
0.208406 0.021535 0.351671 76 0 153
-0.119361 -0.094938 0.686291 76 0 153
0.167128 -0.321303 -0.479903 76 0 153
0.223298 0.520832 0.001610 0 255 0
0.134919 0.480163 0.165878 0 255 0
0.020462 -0.507008 0.018548 76 0 153
-0.239078 -0.340674 -0.457227 76 0 153
0.231961 -0.255760 -0.057761 76 0 153
0.226093 0.027352 0.001772 76 0 153
-0.236105 -0.462190 -0.014966 76 0 153
0.013097 -0.202387 0.105198 76 0 153
0.243569 -0.691238 -0.392322 76 0 153
0.237100 0.093484 -0.190806 76 0 153
-0.041403 -0.785767 -0.481421 76 0 153
-0.000702 -0.264177 -0.542860 76 0 153
0.027834 -0.104965 0.312765 76 0 153
-0.263142 0.032474 -0.279540 76 0 153
0.183584 -0.452360 -0.476033 76 0 153
-0.085680 -0.103358 0.547163 76 0 153
0.243145 -0.183740 -0.386439 76 0 153
0.037754 0.581700 -0.412845 0 255 0
0.204125 0.581700 -0.046267 0 255 0
0.161872 0.556687 0.402521 0 255 0
-0.033582 -0.006167 -0.481421 76 0 153
-0.209990 0.270086 -0.351166 76 0 153
0.049615 0.549043 0.459103 0 255 0
-0.181236 0.563384 -0.479189 0 255 0
-0.140011 0.414650 -0.479425 0 255 0
0.237940 -0.315606 -0.213908 76 0 153
0.095705 -0.395296 0.019313 76 0 153
-0.254493 -0.462772 -0.062852 76 0 153
-0.068096 -0.817384 -0.481421 76 0 153
0.197223 0.581701 -0.095163 0 255 0
-0.116596 0.484935 0.265095 0 255 0
0.035642 0.568299 -0.479425 0 255 0
0.047894 -0.099350 0.598646 76 0 153
-0.025368 0.037660 0.702136 76 0 153
0.241432 -0.196546 -0.337598 76 0 153
-0.167840 -0.060488 0.835216 76 0 153
-0.259041 0.015275 -0.166626 76 0 153
0.058243 -0.026251 0.939597 153 76 0
0.172740 -0.037222 0.645916 76 0 153
-0.080491 0.273720 -0.376924 76 0 153
-0.146318 0.484935 0.340372 0 255 0
-0.254376 0.327273 -0.135068 0 255 0
0.194804 -0.003493 0.463475 76 0 153
0.232518 -0.548310 -0.072763 76 0 153
0.237445 -0.528190 -0.200282 76 0 153
0.016285 0.272270 0.081255 76 0 153
0.166640 0.581699 -0.067979 0 255 0
-0.215824 0.179374 -0.472671 76 0 153
0.001345 -0.611133 -0.482583 76 0 153
0.236105 0.444265 -0.230176 0 255 0
-0.193296 0.581700 -0.293301 0 255 0
-0.076863 0.165189 0.693902 76 0 153
0.234517 0.482069 -0.192061 0 255 0
-0.258702 -0.861340 -0.157304 76 0 153
-0.054160 0.269879 -0.062732 76 0 153
0.238325 0.549342 -0.276535 0 255 0
-0.171115 -0.095528 0.334673 76 0 153
0.157442 -0.108228 -0.480646 76 0 153
0.241633 0.191442 -0.316237 76 0 153
0.225582 0.086962 0.106697 76 0 153
0.015356 -0.078774 0.661359 76 0 153
-0.118597 0.484935 0.206645 0 255 0
-0.166950 -0.402823 0.018798 76 0 153
-0.004773 -0.732110 0.017734 76 0 153
-0.206549 0.091886 -0.475995 76 0 153
0.223134 0.549718 0.007547 0 255 0
-0.242043 0.270374 0.027022 76 0 153
-0.052087 -0.562441 0.018145 76 0 153
0.056548 -0.863901 -0.481421 76 0 153
0.219337 0.136583 0.151731 76 0 153
-0.172461 0.362208 -0.348169 76 0 153
-0.060879 0.486251 -0.479425 0 255 0
0.165892 0.404295 0.044620 0 255 0
-0.253030 0.013280 -0.001471 76 0 153
-0.036822 -0.166710 0.872179 153 76 0
0.199678 0.014265 0.404884 76 0 153
0.075593 -0.070230 0.775382 153 76 0
0.188662 0.322304 -0.309769 76 0 153
0.104914 0.573182 0.236691 0 255 0
-0.078709 0.581700 -0.424032 0 255 0
0.201199 -0.079526 0.244165 76 0 153
-0.126791 0.581692 -0.160465 0 255 0
-0.003154 -0.045087 0.950529 153 76 0
0.226369 -0.315429 -0.026033 76 0 153
0.187050 0.344026 -0.183150 76 0 153
0.236208 -0.429923 -0.166219 76 0 153
0.071447 0.154379 -0.481421 76 0 153
-0.147345 0.525114 0.601444 0 255 0
0.026612 0.581696 -0.318656 0 255 0
0.239338 0.454417 -0.305639 0 255 0
0.240768 -0.502418 -0.414181 76 0 153
-0.103785 -0.030326 0.716902 153 76 0
0.084259 0.383670 -0.064963 76 0 153
0.054757 0.581487 0.030867 0 255 0
0.194120 0.542884 0.349634 0 255 0
-0.231073 0.273536 -0.031233 76 0 153
0.207071 -0.854903 -0.464604 76 0 153
0.205144 -0.043200 0.351411 76 0 153
0.116320 -0.492578 0.018548 76 0 153
-0.256414 -0.039887 -0.094282 76 0 153
-0.069856 -0.464779 -0.481421 76 0 153
-0.007772 -0.015812 0.709707 153 76 0
0.000640 -0.516138 -0.481421 76 0 153
-0.036998 -0.514325 -0.508964 76 0 153
-0.116370 -0.255581 0.064287 76 0 153
-0.218701 0.118176 0.457778 76 0 153
0.055424 0.190138 -0.481421 76 0 153
-0.253712 0.195568 -0.020319 76 0 153
0.231022 -0.123110 -0.439125 76 0 153
0.237812 -0.498840 -0.210394 76 0 153
0.064985 0.581685 -0.014237 0 255 0
-0.253844 -0.090009 -0.023977 76 0 153
-0.107410 0.177278 0.641494 76 0 153
0.222670 0.022159 0.160910 76 0 153
-0.047054 -0.475708 0.017548 76 0 153
0.046069 0.232902 0.430221 76 0 153
-0.204794 0.581701 -0.146394 0 255 0
-0.149767 0.252745 -0.480907 76 0 153
0.045756 0.581706 -0.346400 0 255 0
-0.196747 0.503874 0.314660 0 255 0
-0.043288 0.024399 0.725143 153 76 0
-0.144852 0.532399 0.562243 0 255 0
0.239481 0.421385 -0.311588 0 255 0
-0.073947 -0.743986 -0.481421 76 0 153
-0.170306 0.365184 -0.391590 0 255 0
-0.094296 0.353058 0.025976 0 255 0
0.144832 0.580094 0.105815 0 255 0
-0.228775 0.017291 0.332159 76 0 153
0.234801 -0.372929 -0.127467 76 0 153
-0.261380 0.570548 -0.284317 0 255 0
0.227498 0.077954 -0.036443 76 0 153
-0.137306 0.273887 -0.334607 76 0 153
0.221790 0.226584 0.105278 76 0 153
0.223867 -0.124003 0.053778 76 0 153
0.171840 0.581700 -0.456274 0 255 0
-0.032216 0.581694 -0.290919 0 255 0
-0.139465 0.580297 0.097964 0 255 0
-0.242543 -0.135802 0.097429 76 0 153
-0.163546 0.581697 -0.197474 0 255 0
-0.061716 0.082758 0.725088 153 76 0
0.236907 0.012681 -0.191659 76 0 153
0.165463 0.503336 0.487775 0 255 0
0.239618 -0.801049 -0.260106 76 0 153
0.236746 -0.088338 -0.188865 76 0 153
-0.135497 0.360224 0.028500 0 255 0
0.146000 0.284189 -0.399379 76 0 153
-0.127515 0.198761 0.563954 76 0 153
-0.041208 -0.277214 -0.554908 76 0 153
-0.256791 -0.623870 -0.104699 76 0 153
0.234127 0.565135 -0.179869 0 255 0
0.084770 -0.221685 0.088127 76 0 153
0.229938 0.207332 -0.012814 76 0 153
-0.143004 0.581699 -0.372968 0 255 0
-0.144622 0.331651 -0.064635 76 0 153
0.237246 -0.342537 -0.194805 76 0 153
-0.098026 -0.315663 -0.481421 76 0 153
-0.152219 0.559675 0.377930 0 255 0
0.188775 0.141762 0.537684 76 0 153
0.040089 0.122145 -0.481421 76 0 153
-0.073769 0.086333 -0.481421 76 0 153
0.047729 0.258753 0.226660 76 0 153
-0.242289 0.421135 -0.005419 0 255 0
0.236982 -0.471490 -0.187522 76 0 153
-0.077384 0.113540 0.836716 76 0 153
0.210369 0.064504 0.330436 76 0 153
-0.264044 -0.404881 -0.412347 76 0 153
0.043678 0.484935 0.465653 0 255 0
-0.255546 0.204228 -0.070388 76 0 153
0.076225 0.204356 0.542386 76 0 153
-0.081595 0.484935 0.525164 0 255 0
0.028793 0.484935 0.545036 0 255 0
-0.179732 0.051544 0.847481 76 0 153
-0.258884 -0.249189 -0.162309 76 0 153
-0.246828 -0.084092 0.055271 76 0 153
0.060189 0.000482 0.692076 76 0 153
-0.220261 0.017481 0.468075 76 0 153
0.030497 -0.486626 -0.499093 76 0 153
0.241678 -0.199775 -0.410057 76 0 153
-0.122485 0.581423 0.038512 0 255 0
0.054221 0.375423 -0.418253 76 0 153
0.031583 0.136540 0.776226 76 0 153
0.111434 -0.201487 -0.481421 76 0 153
-0.033408 0.273719 -0.002199 76 0 153
-0.151263 -0.535263 0.018458 76 0 153
0.229913 0.496217 -0.106509 0 255 0
-0.115593 -0.000436 0.695653 153 76 0
0.237248 0.248779 -0.198278 76 0 153
0.187262 0.559803 0.377298 0 255 0
0.018924 0.539616 0.520484 0 255 0
-0.029325 0.212067 0.526881 76 0 153
0.016389 -0.297043 -0.481421 76 0 153
-0.076634 0.555279 0.413780 0 255 0
-0.091694 0.266586 0.121801 76 0 153
-0.260399 -0.183842 -0.204012 76 0 153
-0.143474 -0.101510 0.490784 76 0 153
-0.177153 0.245862 0.331844 76 0 153
0.178372 -0.098025 0.258459 76 0 153
0.142709 0.485664 0.533053 0 255 0
-0.080582 0.581687 -0.131579 0 255 0
-0.258909 -0.581151 -0.163007 76 0 153
-0.262210 -0.063674 -0.253868 76 0 153
0.018483 0.220886 0.487886 76 0 153
-0.034735 -0.188715 -0.481421 76 0 153
-0.260713 -0.147169 -0.212662 76 0 153
0.161484 -0.783741 -0.480336 76 0 153
-0.103754 -0.079410 0.844110 153 76 0
0.182839 -0.034115 0.605934 76 0 153
-0.077294 0.581699 -0.377466 0 255 0
-0.085336 0.273887 -0.123701 76 0 153
-0.154252 -0.095499 0.468379 76 0 153
-0.221612 0.267003 -0.455613 76 0 153
-0.118748 0.301849 0.016881 0 255 0
-0.127550 0.581697 -0.289002 0 255 0
-0.252455 -0.027458 0.014273 76 0 153
0.064035 0.436855 0.080761 0 255 0
0.238621 -0.103682 -0.232662 76 0 153
-0.004082 0.353263 -0.022497 76 0 153
-0.258928 -0.701873 -0.429036 76 0 153
0.208492 0.111184 0.359621 76 0 153
0.081881 -0.179325 0.123234 76 0 153
-0.002978 0.032602 0.728292 153 76 0
-0.067576 0.484935 0.547033 0 255 0
0.157880 0.273887 -0.169220 76 0 153
0.113767 0.323286 -0.410730 76 0 153
0.006714 -0.681568 -0.481421 76 0 153
-0.239932 -0.006670 0.183989 76 0 153
0.174507 0.447815 -0.476595 0 255 0
-0.219619 -0.155722 0.114054 76 0 153
0.156624 0.497219 0.609205 0 255 0
0.242703 0.038915 -0.400769 76 0 153
0.003727 0.484935 0.412885 0 255 0
0.114048 -0.093971 0.639888 76 0 153
-0.211771 -0.431722 0.005907 76 0 153
0.012992 -0.099350 0.533486 76 0 153
-0.066928 0.581691 -0.218928 0 255 0
-0.264626 0.154236 -0.320399 76 0 153
0.239512 0.135415 -0.418996 76 0 153
0.198062 0.540835 0.300938 0 255 0
-0.262512 -0.043318 -0.262214 76 0 153
-0.140569 -0.049110 -0.481421 76 0 153
0.062999 0.258742 0.263531 76 0 153
0.196336 0.478448 0.082080 0 255 0
-0.037671 0.266295 0.127158 76 0 153
0.238011 -0.783871 -0.215866 76 0 153
0.113544 0.378635 -0.420439 0 255 0
0.238838 -0.008360 -0.240531 76 0 153
-0.252341 -0.795653 -0.049539 76 0 153
-0.185241 0.537490 0.532909 0 255 0
0.153127 -0.861865 0.017210 76 0 153
0.022212 0.484935 0.325381 0 255 0
-0.245170 -0.754430 -0.450964 76 0 153
0.158639 0.253084 0.308282 76 0 153
0.200717 0.082976 0.440134 76 0 153
-0.024125 0.461680 0.115865 0 255 0
-0.004926 -0.103358 0.367517 76 0 153
-0.053922 -0.473692 -0.498760 76 0 153
0.223951 0.244414 -0.448981 76 0 153
-0.053003 0.210915 0.531753 76 0 153
-0.001886 0.273867 -0.410278 76 0 153
-0.011975 -0.649448 -0.481421 76 0 153
0.076628 -0.082789 0.815072 153 76 0
0.036413 0.067714 0.777923 153 76 0
0.083413 -0.326332 -0.481421 76 0 153
0.057380 -0.099350 0.507776 76 0 153
-0.062408 0.581700 -0.468797 0 255 0
-0.154610 0.210475 0.534077 76 0 153
0.242323 -0.526866 -0.334571 76 0 153
0.226148 -0.049457 0.096124 76 0 153
-0.257436 -0.322856 -0.122440 76 0 153
-0.251372 0.227951 0.041524 76 0 153
-0.121866 -0.086744 0.825121 76 0 153
0.228753 -0.011913 -0.071357 76 0 153
-0.229111 -0.298785 -0.465074 76 0 153
-0.154628 0.397732 -0.461398 0 255 0
0.242479 0.010987 -0.365491 76 0 153
-0.193651 -0.838676 0.013758 76 0 153
-0.148373 -0.093260 0.670493 76 0 153
0.228080 -0.886009 -0.050393 76 0 153
-0.215627 0.581700 -0.460059 0 255 0
0.215148 0.484059 0.049220 0 255 0
0.158098 0.494825 0.466885 0 255 0
0.081039 0.538557 0.526757 0 255 0
0.208242 0.103763 0.311679 76 0 153
-0.195663 -0.087844 0.340949 76 0 153
-0.257665 -0.232055 -0.128754 76 0 153
-0.164753 0.485031 0.289875 0 255 0
-0.163694 0.581554 0.020589 0 255 0
-0.247532 -0.619181 -0.448102 76 0 153
-0.207031 0.133525 0.589474 76 0 153
0.156233 -0.539508 -0.480738 76 0 153
-0.232079 0.162972 0.358230 76 0 153
-0.115834 0.428040 0.071166 0 255 0
-0.083263 -0.102175 0.922796 153 76 0
0.030577 -0.099350 0.383837 76 0 153
-0.253834 0.516839 -0.122952 0 255 0
-0.200976 0.256506 0.248509 76 0 153
0.040271 0.484935 0.287471 0 255 0
0.116343 0.081164 0.888911 76 0 153
-0.252064 0.139471 0.024405 76 0 153
-0.126365 -0.799587 0.018548 76 0 153
0.092006 0.007146 0.699474 153 76 0
0.099373 0.273887 -0.171020 76 0 153
0.108818 0.273887 -0.402905 76 0 153
0.235322 0.011105 -0.146427 76 0 153
0.001855 0.177780 0.653704 76 0 153
-0.135403 -0.288983 -0.481421 76 0 153
-0.161852 0.290282 -0.061545 76 0 153
0.157884 -0.061601 0.709339 76 0 153
-0.241518 0.569402 0.071922 0 255 0
-0.225741 -0.034091 0.407789 76 0 153
0.179379 0.581700 -0.134611 0 255 0
0.164645 -0.185696 0.115316 76 0 153
0.013787 0.195168 0.593413 76 0 153
-0.256414 0.214900 -0.094303 76 0 153
0.186134 -0.430563 -0.475242 76 0 153
-0.043940 0.581700 -0.439117 0 255 0
-0.031028 -0.202391 0.099707 76 0 153
-0.252619 -0.071678 0.009948 76 0 153
0.228307 0.149332 -0.058837 76 0 153
-0.183007 0.569765 0.279788 0 255 0
0.204464 0.154619 0.366177 76 0 153
0.065519 0.136578 0.765195 76 0 153
0.195696 0.041971 0.443949 76 0 153
0.152801 0.028263 0.846751 76 0 153
0.141791 -0.175720 -0.481329 76 0 153
0.210492 0.408387 0.005555 0 255 0
-0.106238 -0.147949 0.166600 76 0 153
-0.240420 0.581700 -0.324845 0 255 0
-0.198362 -0.808942 -0.478099 76 0 153
-0.213986 0.122916 0.509582 76 0 153
-0.251063 0.418152 -0.076489 0 255 0
-0.029892 -0.246152 0.070158 76 0 153
-0.186003 0.079175 0.756699 76 0 153
0.115294 -0.100903 0.537283 76 0 153
0.011705 0.201495 0.553581 76 0 153
0.080781 0.273738 -0.089423 76 0 153
-0.047005 -0.150224 0.841001 153 76 0
-0.065497 0.463111 0.118803 0 255 0
0.187105 0.016341 0.532519 76 0 153
0.070640 0.149790 0.739779 76 0 153
0.228020 0.053941 -0.444067 76 0 153
0.171180 0.581700 -0.404996 0 255 0
0.031683 0.028128 -0.481421 76 0 153
0.147338 0.273883 -0.039759 76 0 153
0.107293 0.581539 0.024722 0 255 0
0.073043 0.554016 0.423614 0 255 0
0.013679 0.581692 -0.261655 0 255 0
-0.116933 -0.079349 0.761573 153 76 0
-0.266617 -0.236775 -0.382851 76 0 153
-0.152739 0.260439 0.249323 76 0 153
0.099290 0.252072 -0.480972 76 0 153
0.079751 0.501871 -0.479425 0 255 0
-0.234652 -0.000792 0.315876 76 0 153
0.128852 0.254405 0.266186 76 0 153
0.098611 0.268185 0.087817 76 0 153
0.226170 -0.032879 -0.000320 76 0 153
0.162514 0.350656 -0.339091 76 0 153
-0.189159 -0.463354 0.014979 76 0 153
0.232852 0.408184 -0.166883 0 255 0
-0.027553 -0.349583 0.026162 76 0 153
0.147276 0.212213 0.509008 76 0 153
-0.107364 0.183602 -0.481421 76 0 153
0.099266 -0.015766 -0.481421 76 0 153
0.211832 0.581513 0.028885 0 255 0
0.091962 0.273553 -0.201661 76 0 153
0.196944 0.308961 -0.159912 76 0 153
0.201950 -0.135453 0.128666 76 0 153
-0.129776 0.166931 -0.481421 76 0 153
0.239964 -0.337103 -0.270070 76 0 153
0.087970 0.202960 -0.481421 76 0 153
0.032696 0.172783 0.670199 76 0 153
-0.075521 0.291644 -0.452130 76 0 153
0.240850 0.165216 -0.296263 76 0 153
0.237481 -0.843855 -0.201269 76 0 153
-0.258533 -0.147677 -0.152640 76 0 153
-0.117130 -0.622233 -0.481421 76 0 153
-0.232436 -0.682910 -0.010341 76 0 153
-0.144267 -0.784386 -0.481421 76 0 153
0.085496 -0.554811 -0.481421 76 0 153
0.237364 -0.556188 -0.198036 76 0 153
0.242032 0.550476 -0.378267 0 255 0
-0.229343 0.184512 0.395072 76 0 153
-0.227896 -0.218883 0.048198 76 0 153
-0.197194 -0.773817 0.012768 76 0 153
0.223367 -0.113024 0.103946 76 0 153
0.231734 0.470897 -0.140357 0 255 0
-0.070640 -0.001190 0.900360 153 76 0
-0.114324 0.484935 0.484348 0 255 0
0.075973 -0.108054 0.876477 153 76 0
-0.176216 0.581698 -0.132114 0 255 0
0.234796 0.516044 -0.195509 0 255 0
0.084778 0.176423 0.644393 76 0 153
-0.118916 -0.713938 -0.481421 76 0 153
-0.256496 -0.318302 -0.096580 76 0 153
-0.135561 -0.863255 0.018548 76 0 153
0.243596 -0.476633 -0.371455 76 0 153
0.023426 0.484935 0.370553 0 255 0
-0.063963 0.447346 0.093240 0 255 0
-0.073318 0.581607 0.014449 0 255 0
-0.201745 0.096020 0.657350 76 0 153
0.243362 -0.617019 -0.363174 76 0 153
-0.051367 0.191752 0.605554 76 0 153
0.098079 0.055527 0.883322 76 0 153
-0.266466 -0.294682 -0.388905 76 0 153
-0.252324 0.405770 -0.100307 0 255 0
0.178238 -0.058498 -0.477498 76 0 153
0.008361 0.581679 -0.026367 0 255 0
0.238009 -0.159455 -0.215826 76 0 153
0.040616 0.317869 -0.015839 76 0 153
0.173153 0.077892 0.699809 76 0 153
0.199246 0.329144 -0.221352 76 0 153
0.233777 0.040510 -0.104819 76 0 153
-0.096807 0.192441 0.603372 76 0 153
0.223342 -0.063386 0.145416 76 0 153
-0.082627 0.560236 0.373452 0 255 0
0.230721 0.157769 -0.439637 76 0 153
0.057351 0.375056 -0.048050 76 0 153
0.063991 -0.135791 0.186762 76 0 153
0.039906 0.194648 0.579713 76 0 153
-0.248535 0.428642 -0.027444 0 255 0
-0.207968 0.225560 0.423307 76 0 153
0.237974 0.367678 -0.275904 0 255 0
0.205585 -0.045875 0.285851 76 0 153
0.235802 -0.274580 -0.155033 76 0 153
0.234529 -0.309145 -0.119994 76 0 153
-0.163034 0.542886 -0.479425 0 255 0
0.110748 -0.098639 0.506874 76 0 153
-0.238225 0.086808 0.215492 76 0 153
-0.095305 0.323427 -0.030269 76 0 153
0.030497 -0.520505 -0.487844 76 0 153
0.042812 0.183430 0.620478 76 0 153
0.207534 -0.074108 0.209890 76 0 153
-0.250752 0.200999 0.056803 76 0 153
-0.147742 0.273851 -0.446987 76 0 153
-0.170070 -0.392371 -0.481147 76 0 153
0.226905 -0.015334 0.080492 76 0 153
-0.097568 0.112476 0.829014 76 0 153
-0.264439 -0.266786 -0.315263 76 0 153
-0.260169 -0.791332 -0.197681 76 0 153
-0.160214 0.096960 0.875122 76 0 153
-0.034994 -0.023915 0.706597 153 76 0
0.193929 0.571405 0.260760 0 255 0
-0.258893 -0.407516 -0.162575 76 0 153
0.005274 0.264193 0.163125 76 0 153
0.233729 0.217046 -0.434549 76 0 153
0.189245 -0.818968 0.005762 76 0 153
-0.232046 0.040710 -0.462991 76 0 153
-0.034274 -0.080691 0.684803 153 76 0
-0.183109 -0.869209 -0.480386 76 0 153
-0.138592 0.268102 -0.040251 76 0 153
0.053974 0.314788 -0.445834 76 0 153
-0.017309 -0.400536 -0.508964 76 0 153
0.115975 0.484935 0.281094 0 255 0
0.151730 0.572373 0.247643 0 255 0
0.036423 -0.084735 0.653648 76 0 153
-0.254291 -0.777695 -0.060915 76 0 153
-0.028054 0.322747 -0.012498 76 0 153
0.000213 -0.121858 0.749611 153 76 0
-0.212638 -0.494155 0.005409 76 0 153
0.106717 -0.191420 0.110002 76 0 153
0.208868 0.057293 0.298408 76 0 153
-0.172001 0.386926 -0.131628 76 0 153
-0.039625 -0.698221 0.018507 76 0 153
0.002271 0.581683 -0.096037 0 255 0
-0.257353 0.159246 -0.120138 76 0 153
-0.048172 0.581676 -0.020596 0 255 0
0.074588 -0.060947 0.744425 153 76 0
-0.040271 -0.103529 0.711572 153 76 0
0.022938 -0.619636 -0.495147 76 0 153
0.156552 0.575396 0.204768 0 255 0
0.064862 -0.074120 0.663301 76 0 153
-0.112245 0.473603 -0.479425 0 255 0
-0.096782 0.163362 0.686976 76 0 153
-0.052489 -0.810040 0.018548 76 0 153
0.208908 0.292257 -0.289296 76 0 153
0.065886 -0.333202 0.030416 76 0 153
-0.101617 0.148944 0.730372 76 0 153
0.075987 -0.016904 0.834761 153 76 0
-0.210271 0.330744 -0.162562 76 0 153
0.123902 0.571022 0.265812 0 255 0
-0.235454 0.096431 0.306026 76 0 153
0.169755 0.499326 0.307580 0 255 0
-0.262526 0.566555 -0.314617 0 255 0
-0.102415 0.531042 0.570053 0 255 0
0.233458 -0.857712 -0.090508 76 0 153
0.137160 0.562871 0.349934 0 255 0
0.025821 0.267428 0.172230 76 0 153
0.216105 -0.084481 0.173349 76 0 153
-0.183548 0.052910 0.773784 76 0 153
-0.053922 -0.384046 -0.492727 76 0 153
0.239403 -0.838248 -0.254180 76 0 153
-0.041820 0.484935 0.614001 0 255 0
-0.215432 -0.018032 0.486705 76 0 153
0.166472 -0.688367 0.014955 76 0 153
-0.112989 0.581695 -0.251657 0 255 0
-0.259558 -0.546878 -0.180866 76 0 153
-0.022322 -0.123560 0.224721 76 0 153
0.243318 -0.323483 -0.394768 76 0 153
-0.263999 0.484987 -0.354629 0 255 0
0.098163 0.415983 -0.479425 0 255 0
-0.062393 -0.222460 0.082266 76 0 153
-0.196964 0.423360 -0.476643 0 255 0
0.107134 -0.821002 -0.481421 76 0 153
-0.022530 0.566096 0.319828 0 255 0
0.152948 0.581700 -0.445746 0 255 0
-0.010799 -0.162782 0.897565 153 76 0
0.238386 0.119241 -0.226168 76 0 153
0.030341 -0.144684 0.178918 76 0 153
-0.149799 0.253966 0.302386 76 0 153
-0.217561 -0.803034 -0.471804 76 0 153
0.013490 -0.425022 0.018323 76 0 153
0.120992 0.264721 0.154720 76 0 153
0.124623 0.187382 0.620305 76 0 153
0.153538 -0.115854 0.236149 76 0 153
0.011134 0.050592 0.848086 153 76 0
-0.072455 0.521555 0.620124 0 255 0
0.030497 -0.586551 -0.502507 76 0 153
0.049341 0.268389 0.081780 76 0 153
-0.105832 0.581686 -0.056936 0 255 0
-0.210728 -0.065681 0.360014 76 0 153
0.159092 0.025739 0.797250 76 0 153
0.241469 -0.446196 -0.311074 76 0 153
0.236038 0.033761 -0.167420 76 0 153
0.239055 -0.178630 -0.244590 76 0 153
-0.250917 0.269793 -0.131683 76 0 153
0.059881 0.236323 -0.481413 76 0 153
-0.084290 -0.605721 0.018548 76 0 153
-0.143278 -0.195714 0.105771 76 0 153
0.019494 0.323699 -0.450481 76 0 153
0.080997 -0.241224 0.073410 76 0 153
-0.130953 -0.153402 -0.481421 76 0 153
-0.092086 -0.103358 0.594349 76 0 153
-0.233534 -0.310047 0.004823 76 0 153
-0.029451 0.006074 0.690018 76 0 153
0.240441 -0.240778 -0.310297 76 0 153
0.128026 0.234368 0.401960 76 0 153
0.003401 0.573901 0.227010 0 255 0
0.000252 0.116736 -0.481421 76 0 153
0.052052 -0.242972 0.072257 76 0 153
0.202242 0.273885 -0.425127 76 0 153
0.025511 0.581124 0.064035 0 255 0
0.032224 0.063424 0.885594 76 0 153
-0.265334 -0.706495 -0.339859 76 0 153
-0.142559 0.484935 0.591509 0 255 0
0.068975 -0.094310 0.799307 153 76 0
0.053531 0.024784 0.859809 153 76 0
0.173359 0.339353 -0.138204 76 0 153
-0.265013 0.118513 -0.331033 76 0 153
-0.263130 0.520131 -0.330306 0 255 0
0.050639 -0.004926 0.904060 153 76 0
-0.031554 -0.678162 0.018328 76 0 153
-0.219344 -0.070695 0.301342 76 0 153
-0.123333 -0.664335 -0.481421 76 0 153
-0.069942 0.188954 0.615242 76 0 153
-0.032107 0.581696 -0.317175 0 255 0
0.072923 0.581693 -0.235456 0 255 0
0.113440 0.465240 0.123164 0 255 0
0.135133 0.346362 -0.380006 76 0 153
-0.215540 -0.103606 0.209476 76 0 153
0.081033 -0.065694 0.917652 153 76 0
0.226240 0.115683 0.095118 76 0 153
-0.092910 -0.689043 0.018548 76 0 153
-0.086013 0.018258 0.722785 153 76 0
-0.265795 -0.140688 -0.352588 76 0 153
-0.135940 -0.560883 -0.481421 76 0 153
0.240910 -0.113018 -0.313556 76 0 153
-0.264116 -0.721437 -0.412122 76 0 153
-0.222837 -0.821868 -0.002053 76 0 153
-0.220598 0.313848 -0.297705 76 0 153
-0.207327 0.198222 -0.475753 76 0 153
0.131071 0.411469 0.056477 0 255 0
-0.208031 0.484630 -0.473224 0 255 0
0.225498 0.405132 -0.033608 0 255 0
0.205329 0.198188 0.362895 76 0 153
-0.052610 -0.420387 -0.507114 76 0 153
0.237460 0.404819 -0.263680 0 255 0
0.080008 0.097452 0.865145 76 0 153
-0.086157 0.221871 0.465668 76 0 153
0.172332 -0.249751 -0.478826 76 0 153
0.240076 0.052444 -0.272711 76 0 153
-0.238850 0.581700 -0.143457 0 255 0
-0.197757 0.081865 0.688429 76 0 153
-0.195988 -0.041177 0.627184 76 0 153
0.161690 0.273857 -0.446128 76 0 153
0.228417 -0.161132 0.030841 76 0 153
0.165199 -0.093008 0.332233 76 0 153
-0.046823 -0.601162 -0.481421 76 0 153
-0.205903 0.510686 0.244543 0 255 0
0.242655 -0.001392 -0.401200 76 0 153
-0.023765 -0.103358 0.431828 76 0 153
0.220857 -0.764066 -0.452509 76 0 153
-0.156665 0.269513 0.031228 76 0 153
-0.179058 0.496494 0.605032 0 255 0
-0.186013 0.581700 -0.466740 0 255 0
-0.189278 0.390158 -0.445153 0 255 0
0.066381 0.007166 0.718527 153 76 0
0.188875 0.270647 -0.463751 76 0 153
0.185897 0.258674 0.223469 76 0 153
-0.084974 -0.371285 -0.481421 76 0 153
-0.264838 -0.637092 -0.407633 76 0 153
0.124342 -0.302131 0.041091 76 0 153
-0.255557 -0.600089 -0.075913 76 0 153
-0.243961 -0.161179 0.069819 76 0 153
-0.090469 0.571893 0.254204 0 255 0
-0.040236 -0.460041 -0.508964 76 0 153
-0.265364 -0.670886 -0.403727 76 0 153
0.221582 -0.193152 0.044554 76 0 153
0.236764 -0.703191 -0.181528 76 0 153
0.224173 -0.076375 0.051311 76 0 153
