ply
format ascii 1.0
element vertex 1283
property float x
property float y
property float z
property uchar red
property uchar green
property uchar blue
end_header
0.137183 0.271883 -0.334761 76 0 153
-0.181755 0.315332 -0.094761 76 0 153
-0.188566 -0.254205 0.058881 76 0 153
-0.185016 0.369893 0.028471 0 255 0
0.056672 0.271883 -0.240063 76 0 153
-0.236008 0.186336 0.284520 76 0 153
-0.093724 0.292566 0.005973 0 255 0
-0.033900 0.470122 0.133183 0 255 0
-0.029198 0.271883 -0.207220 76 0 153
0.103783 -0.080223 -0.479417 76 0 153
0.224140 0.224168 -0.445956 76 0 153
0.114421 0.485892 0.631522 0 255 0
0.109840 0.270575 0.077076 76 0 153
0.099981 0.526489 -0.479425 0 255 0
0.179741 0.510703 0.333526 0 255 0
0.235939 -0.199740 -0.213880 76 0 153
-0.259241 -0.101672 -0.227410 76 0 153
0.085624 0.581692 -0.151632 0 255 0
0.133846 0.581700 -0.307011 0 255 0
0.172679 -0.197284 0.098218 76 0 153
0.238067 0.036446 -0.272472 76 0 153
0.120163 0.271883 -0.288984 76 0 153
-0.065217 0.389526 0.041893 0 255 0
-0.263057 -0.698851 -0.332457 76 0 153
-0.250411 -0.030464 0.015694 76 0 153
0.168630 -0.332264 0.025156 76 0 153
-0.140132 0.484937 0.386528 0 255 0
0.144398 0.561851 0.359494 0 255 0
-0.252736 0.028274 -0.048314 76 0 153
-0.129756 0.498328 0.647411 0 255 0
-0.087365 0.581684 -0.050373 0 255 0
0.190203 -0.708695 -0.471922 76 0 153
0.199076 0.105449 0.441526 76 0 153
-0.156434 0.210785 0.524539 76 0 153
0.148108 -0.085290 0.543727 76 0 153
-0.092304 -0.709801 -0.479417 76 0 153
-0.264306 -0.753036 -0.366846 76 0 153
-0.263190 -0.404607 -0.336121 76 0 153
0.052514 0.393844 -0.453057 0 255 0
0.199167 0.331888 -0.231207 76 0 153
0.114679 0.484937 0.385600 0 255 0
-0.222252 0.328690 -0.243847 76 0 153
-0.225136 0.271083 0.053010 76 0 153
-0.212464 -0.549224 -0.472151 76 0 153
0.221401 -0.270967 -0.003363 76 0 153
0.104823 0.467755 0.128320 0 255 0
0.011686 -0.211901 0.093955 76 0 153
-0.074305 -0.136306 0.851490 153 76 0
0.033116 0.516861 0.643518 0 255 0
0.142686 0.333421 -0.085448 76 0 153
-0.092766 0.271883 -0.329997 76 0 153
-0.143732 0.361623 -0.081046 76 0 153
0.059841 0.485184 0.628197 0 255 0
0.220398 -0.010623 0.166357 76 0 153
-0.131473 0.500108 -0.479425 0 255 0
-0.050808 0.367374 -0.430944 76 0 153
0.237402 -0.049563 -0.421524 76 0 153
-0.063391 -0.563997 0.016546 76 0 153
0.102995 0.266665 0.157258 76 0 153
0.233243 0.136509 -0.139661 76 0 153
0.228689 0.094085 -0.014273 76 0 153
0.038856 -0.322008 0.031671 76 0 153
-0.170743 -0.096819 0.370857 76 0 153
0.018337 0.042564 0.864228 153 76 0
0.155714 0.495612 0.596082 0 255 0
-0.257110 -0.765023 -0.168732 76 0 153
0.232662 -0.457080 -0.123669 76 0 153
0.228394 -0.105499 -0.006177 76 0 153
0.003758 0.581685 -0.105727 0 255 0
-0.209524 0.257488 0.257438 76 0 153
-0.257422 -0.715662 -0.177315 76 0 153
0.069868 0.581698 -0.292150 0 255 0
0.122746 0.581697 -0.182819 0 255 0
-0.112327 -0.113323 -0.479417 76 0 153
-0.024371 0.581609 0.015072 0 255 0
0.228967 0.018816 -0.021934 76 0 153
-0.225616 0.363949 -0.001092 0 255 0
-0.249782 0.105282 0.031578 76 0 153
-0.179522 0.581582 0.016910 0 255 0
-0.042269 0.271883 -0.418357 76 0 153
-0.007542 0.271883 -0.302960 76 0 153
-0.256062 0.107071 -0.139881 76 0 153
-0.122920 0.577375 0.170474 0 255 0
-0.194742 0.004912 0.711639 76 0 153
0.239650 -0.753869 -0.316055 76 0 153
-0.065520 0.484937 0.352396 0 255 0
0.237615 0.464881 -0.262072 0 255 0
0.228436 0.244482 -0.007316 76 0 153
-0.247736 0.102210 0.081334 76 0 153
0.235212 -0.551709 -0.193867 76 0 153
-0.078605 0.581690 -0.164566 0 255 0
0.199440 0.270579 0.076861 76 0 153
-0.234921 -0.819788 -0.458575 76 0 153
-0.240324 -0.017251 0.209083 76 0 153
0.190194 0.580802 0.077203 0 255 0
0.073745 -0.034746 0.676448 76 0 153
-0.264078 -0.229199 -0.360574 76 0 153
-0.012481 0.193346 0.592676 76 0 153
0.134331 0.269470 0.105685 76 0 153
-0.086598 0.425844 0.069211 0 255 0
0.201326 0.404421 0.015639 0 255 0
0.238322 -0.596537 -0.279491 76 0 153
0.241765 -0.023441 -0.374283 76 0 153
-0.187435 -0.545309 -0.478387 76 0 153
-0.261164 -0.556987 -0.280352 76 0 153
0.212685 -0.232023 0.033242 76 0 153
0.168910 0.235171 0.408016 76 0 153
0.106692 0.430918 0.073904 0 255 0
-0.259552 -0.539629 -0.235973 76 0 153
0.103935 -0.101356 0.382670 76 0 153
-0.147108 -0.418798 -0.479417 76 0 153
0.132032 0.271883 -0.137468 76 0 153
-0.031419 0.199506 -0.479417 76 0 153
0.228575 -0.408492 -0.052684 76 0 153
-0.030551 0.484937 0.367589 0 255 0
-0.067826 0.484937 0.502988 0 255 0
-0.024172 0.560253 0.373423 0 255 0
-0.192203 0.035278 0.718815 76 0 153
0.240951 -0.310609 -0.351891 76 0 153
0.069133 -0.306155 -0.479417 76 0 153
0.108970 0.157454 0.710985 76 0 153
-0.148293 0.563607 0.342880 0 255 0
-0.168131 -0.335513 -0.479417 76 0 153
0.206461 0.581702 -0.422812 0 255 0
-0.153136 0.240286 0.379957 76 0 153
0.017191 0.471707 0.137333 0 255 0
0.076321 0.292566 -0.006613 76 0 153
-0.048378 0.049591 0.805373 153 76 0
-0.208368 -0.071291 0.375918 76 0 153
-0.145522 -0.635034 0.016546 76 0 153
0.018091 -0.114877 0.923746 153 76 0
-0.201701 -0.784770 -0.476507 76 0 153
0.021296 0.250633 0.313535 76 0 153
-0.232377 -0.121897 -0.460544 76 0 153
-0.033937 -0.058486 0.667335 76 0 153
0.208772 0.269296 0.108882 76 0 153
0.076108 -0.046740 0.717634 153 76 0
0.224792 -0.046873 0.082616 76 0 153
-0.105468 -0.567228 -0.479417 76 0 153
0.194138 0.379571 -0.422446 0 255 0
0.237677 0.063302 -0.261728 76 0 153
-0.242602 -0.001123 0.176590 76 0 153
-0.011923 0.033340 0.870871 153 76 0
-0.040142 0.521618 0.619805 0 255 0
0.198594 0.547903 0.304981 0 255 0
-0.197066 0.292566 -0.077824 76 0 153
0.231772 -0.625362 -0.099173 76 0 153
-0.250819 -0.396739 -0.048808 76 0 153
-0.197594 0.468680 0.100678 0 255 0
0.104240 0.059090 -0.479417 76 0 153
0.238720 -0.124080 -0.290455 76 0 153
-0.045596 0.484937 0.444358 0 255 0
-0.219133 0.132407 0.477377 76 0 153
-0.028788 -0.718164 -0.479417 76 0 153
0.210595 0.271865 0.000742 76 0 153
-0.197761 -0.190108 0.103190 76 0 153
0.206697 0.260305 0.232047 76 0 153
0.142539 0.580319 0.096726 0 255 0
-0.120636 0.271883 -0.134117 76 0 153
-0.061843 0.343463 -0.440650 76 0 153
0.002552 0.579547 0.120946 0 255 0
0.215706 -0.283524 -0.455790 76 0 153
0.001030 0.484937 0.592420 0 255 0
-0.244678 -0.876781 -0.448987 76 0 153
-0.263760 0.223074 -0.351818 76 0 153
0.107398 0.198055 0.574533 76 0 153
0.233918 -0.709061 -0.158263 76 0 153
-0.157083 -0.119604 -0.479417 76 0 153
0.191146 0.581702 -0.376515 0 255 0
-0.102548 -0.611359 0.016546 76 0 153
-0.096371 -0.655417 0.016546 76 0 153
-0.143409 -0.093362 0.695291 76 0 153
-0.062209 0.271883 -0.298863 76 0 153
-0.257022 0.010649 -0.166300 76 0 153
-0.090500 0.581698 -0.298860 0 255 0
0.151701 0.486576 0.184065 0 255 0
-0.211623 0.021355 0.525195 76 0 153
0.238614 0.510153 -0.283650 0 255 0
0.185516 0.507944 0.172177 0 255 0
-0.243395 0.131018 0.164826 76 0 153
-0.211094 -0.433389 0.005147 76 0 153
-0.260347 0.057044 -0.257864 76 0 153
0.059768 0.162081 0.697039 76 0 153
-0.001948 0.575552 0.202144 0 255 0
0.010317 -0.520669 -0.479417 76 0 153
0.133100 -0.085558 0.692314 76 0 153
0.227962 -0.174272 0.005734 76 0 153
-0.121827 0.581702 -0.441417 0 255 0
0.154292 -0.128887 0.199400 76 0 153
0.153027 -0.795340 0.015663 76 0 153
-0.151918 0.581701 -0.353865 0 255 0
-0.045024 0.403224 0.050871 0 255 0
0.023105 -0.099387 0.707312 153 76 0
0.062355 0.109975 -0.479417 76 0 153
0.150694 -0.095104 0.384632 76 0 153
-0.006221 -0.457225 0.016546 76 0 153
-0.233164 -0.539349 -0.459935 76 0 153
0.156776 0.287882 -0.077914 76 0 153
0.140593 -0.188204 0.115641 76 0 153
-0.088159 -0.302287 -0.479417 76 0 153
-0.238005 0.097923 0.248406 76 0 153
0.169842 0.581698 -0.002779 0 255 0
-0.258235 0.409467 -0.218204 0 255 0
-0.048133 0.271876 -0.029629 76 0 153
-0.189506 0.581701 -0.076498 0 255 0
-0.032140 -0.101356 0.371902 76 0 153
-0.261035 -0.242516 -0.276788 76 0 153
0.000971 0.533073 0.558364 0 255 0
0.123759 -0.590610 -0.479417 76 0 153
-0.251805 0.104272 -0.022682 76 0 153
0.072109 -0.776374 -0.479417 76 0 153
-0.196021 -0.050009 -0.477257 76 0 153
0.233560 -0.630303 -0.148386 76 0 153
-0.050584 0.484937 0.587078 0 255 0
0.215268 -0.017437 0.240291 76 0 153
0.063244 -0.111113 0.258984 76 0 153
-0.000856 -0.101356 0.410347 76 0 153
0.234914 -0.352718 -0.185665 76 0 153
0.231592 -0.423782 -0.094220 76 0 153
0.130352 -0.089525 0.621226 76 0 153
0.007128 0.581704 -0.338413 0 255 0
-0.158370 -0.764658 -0.479417 76 0 153
0.156055 0.491167 0.393604 0 255 0
-0.121504 0.339627 -0.050516 76 0 153
0.108555 0.580086 0.106216 0 255 0
-0.197060 0.581701 -0.256610 0 255 0
0.152774 -0.635093 -0.479417 76 0 153
-0.257050 0.142422 -0.167080 76 0 153
-0.097169 0.581690 -0.130673 0 255 0
-0.118096 0.252300 0.300040 76 0 153
0.012922 0.271883 -0.092702 76 0 153
0.057845 -0.117162 0.916170 153 76 0
-0.261453 -0.280697 -0.288303 76 0 153
0.185658 0.310218 0.004517 0 255 0
0.238296 -0.875417 -0.278778 76 0 153
-0.097635 -0.098093 0.842759 153 76 0
0.178143 -0.629672 0.009511 76 0 153
-0.257440 -0.276412 -0.428506 76 0 153
0.149928 -0.363075 -0.479417 76 0 153
0.203184 0.100913 0.397624 76 0 153
-0.139983 -0.446423 -0.479417 76 0 153
-0.248632 0.449429 -0.441865 0 255 0
-0.243862 -0.788749 -0.030232 76 0 153
-0.026227 0.226769 0.452253 76 0 153
-0.257595 0.479431 -0.198026 0 255 0
-0.186072 0.382646 -0.306709 76 0 153
-0.025585 -0.183997 -0.479417 76 0 153
0.125473 0.270307 -0.417148 76 0 153
0.063224 -0.087726 0.927828 153 76 0
0.161081 -0.811341 -0.478853 76 0 153
0.014042 -0.515133 0.016546 76 0 153
-0.253881 0.255972 -0.079842 76 0 153
-0.154403 0.271873 -0.021024 76 0 153
-0.258807 0.015082 -0.215457 76 0 153
-0.263812 0.424854 -0.350782 0 255 0
-0.050053 0.576168 0.191445 0 255 0
0.030501 -0.341649 -0.499476 76 0 153
-0.254480 0.119691 -0.096327 76 0 153
0.016356 0.499164 0.648326 0 255 0
0.227889 -0.689306 -0.048905 76 0 153
-0.192913 -0.217235 0.082384 76 0 153
-0.233574 0.552071 0.165610 0 255 0
-0.052750 -0.480353 0.016546 76 0 153
0.227816 -0.356174 -0.044419 76 0 153
-0.187352 0.205800 -0.478398 76 0 153
0.230271 0.180733 -0.057844 76 0 153
0.114151 0.222657 0.471644 76 0 153
-0.020972 0.088758 -0.479417 76 0 153
-0.263621 -0.018439 -0.347979 76 0 153
0.219252 0.249485 0.192055 76 0 153
0.239951 0.228503 -0.324343 76 0 153
-0.262053 -0.142677 -0.304830 76 0 153
-0.216430 -0.863727 -0.470504 76 0 153
0.000413 -0.383343 -0.508964 76 0 153
-0.001607 -0.764591 -0.479417 76 0 153
-0.007225 0.484937 0.331080 0 255 0
-0.262069 -0.710294 -0.305250 76 0 153
0.234251 0.417458 -0.428010 0 255 0
0.159811 -0.071609 0.582411 76 0 153
0.225390 0.198067 0.070127 76 0 153
0.224134 -0.010931 0.096810 76 0 153
0.238144 -0.505038 -0.419632 76 0 153
-0.222614 -0.083223 0.228739 76 0 153
-0.223351 0.581702 -0.308888 0 255 0
-0.120171 -0.142740 0.178325 76 0 153
-0.210288 0.368354 -0.398387 0 255 0
-0.263060 -0.666333 -0.332546 76 0 153
0.038435 0.411418 0.056444 0 255 0
-0.195240 0.507954 0.426033 0 255 0
0.066564 0.271883 -0.438374 76 0 153
-0.225264 -0.006831 -0.466045 76 0 153
0.237091 -0.082780 -0.245599 76 0 153
0.177373 0.183276 -0.476703 76 0 153
0.081343 -0.079001 0.851580 153 76 0
0.015022 0.432362 0.075571 0 255 0
-0.172309 -0.102799 0.283829 76 0 153
-0.259078 -0.725161 -0.222911 76 0 153
0.226858 0.207891 0.034101 76 0 153
0.133875 -0.697864 -0.479417 76 0 153
-0.246287 -0.096610 0.103676 76 0 153
0.198770 0.581702 -0.082962 0 255 0
-0.227376 -0.086167 -0.464412 76 0 153
-0.128290 0.176479 0.651078 76 0 153
0.152380 0.318824 -0.376536 76 0 153
-0.249577 -0.205040 -0.442400 76 0 153
0.242328 -0.859560 -0.389802 76 0 153
-0.170018 0.486747 0.306345 0 255 0
-0.235438 0.574335 0.154497 0 255 0
-0.064990 -0.809232 -0.479417 76 0 153
0.242066 0.138841 -0.395362 76 0 153
0.153272 -0.070972 0.638927 76 0 153
0.181944 0.516038 0.360557 0 255 0
0.194987 0.251632 0.305530 76 0 153
-0.010829 0.558159 -0.479425 0 255 0
-0.260105 -0.317543 -0.251197 76 0 153
-0.206327 0.240933 0.375806 76 0 153
0.183933 0.047462 0.579231 76 0 153
-0.195735 -0.596293 -0.477293 76 0 153
0.083077 0.318309 -0.432217 76 0 153
0.156813 0.257857 0.254408 76 0 153
-0.095006 0.226821 0.451980 76 0 153
0.237555 0.145395 -0.258381 76 0 153
0.050967 0.271883 -0.276725 76 0 153
0.050400 0.146357 -0.479417 76 0 153
0.229835 -0.250386 -0.045837 76 0 153
-0.216433 0.027248 0.484363 76 0 153
0.240132 -0.186174 -0.329334 76 0 153
-0.202786 0.514425 0.375127 0 255 0
0.019743 0.581682 0.005415 0 255 0
0.234664 0.323967 -0.196505 0 255 0
-0.260653 0.376724 -0.273009 0 255 0
0.193219 0.196428 0.526810 76 0 153
0.231809 -0.136636 -0.435743 76 0 153
0.055995 0.534300 0.551288 0 255 0
0.061916 0.032476 -0.479417 76 0 153
-0.115539 -0.019423 0.761173 153 76 0
-0.222402 0.271883 -0.432756 76 0 153
-0.048702 -0.368883 0.020817 76 0 153
0.018994 -0.101356 0.369088 76 0 153
0.178400 -0.767390 0.009407 76 0 153
-0.178704 0.061607 0.835920 76 0 153
-0.070438 0.271883 -0.466020 76 0 153
0.240142 -0.573245 -0.329615 76 0 153
0.231470 -0.274248 -0.090849 76 0 153
-0.242994 -0.622899 -0.028287 76 0 153
0.215002 0.039396 0.243097 76 0 153
-0.248875 0.561493 -0.035262 0 255 0
-0.152270 0.271307 -0.051212 76 0 153
0.225645 -0.092303 0.064747 76 0 153
0.162323 -0.043346 -0.478690 76 0 153
-0.223015 -0.761494 -0.003718 76 0 153
0.239041 0.450801 -0.298340 0 255 0
-0.252229 0.060320 -0.034351 76 0 153
-0.189445 -0.111577 0.229031 76 0 153
0.127035 0.459768 -0.479425 0 255 0
-0.234060 0.217495 0.313783 76 0 153
0.200502 0.145128 0.434316 76 0 153
-0.245007 -0.763575 -0.448539 76 0 153
0.235346 -0.778633 -0.197580 76 0 153
-0.258104 -0.200831 -0.196099 76 0 153
0.143414 0.163570 0.692550 76 0 153
-0.221430 0.041566 0.434290 76 0 153
-0.016430 0.271883 -0.329573 76 0 153
0.077740 -0.103925 0.299655 76 0 153
-0.017097 -0.857277 -0.479417 76 0 153
0.019373 -0.806226 0.016546 76 0 153
0.237981 -0.555075 -0.420049 76 0 153
0.241634 -0.883151 -0.370690 76 0 153
-0.264882 0.105234 -0.382698 76 0 153
0.221351 -0.613286 -0.449674 76 0 153
0.009151 -0.409471 -0.479417 76 0 153
-0.029332 0.484937 0.419049 0 255 0
-0.257684 -0.876953 -0.184531 76 0 153
-0.006210 0.050161 0.825334 153 76 0
-0.260707 0.349559 -0.271888 0 255 0
-0.014629 0.460952 0.114372 0 255 0
-0.089378 -0.007842 -0.479417 76 0 153
-0.260622 -0.604989 -0.265431 76 0 153
-0.067766 0.324074 -0.018550 76 0 153
0.207287 -0.003995 0.344676 76 0 153
0.181493 0.150876 0.632541 76 0 153
0.102462 -0.278621 0.049201 76 0 153
-0.248870 -0.552418 -0.041449 76 0 153
0.017893 -0.242546 -0.479417 76 0 153
0.143711 0.301596 0.016690 0 255 0
-0.000411 0.402558 -0.471747 0 255 0
-0.210380 0.512522 -0.472118 0 255 0
-0.070358 0.484937 0.559735 0 255 0
0.221451 0.258095 0.148834 76 0 153
0.072305 0.217607 0.494144 76 0 153
0.230520 0.102207 -0.064689 76 0 153
0.140957 -0.085116 0.596565 76 0 153
-0.251710 0.504395 -0.088851 0 255 0
0.007983 -0.633193 -0.503484 76 0 153
-0.004731 0.581347 0.048779 0 255 0
0.035280 0.228724 0.441963 76 0 153
0.172709 0.292566 -0.039535 76 0 153
-0.233837 0.153830 0.309867 76 0 153
0.162700 0.271883 -0.391653 76 0 153
-0.079949 -0.046503 0.697932 153 76 0
0.031369 0.484937 0.472060 0 255 0
0.146651 0.136196 -0.479417 76 0 153
-0.052558 -0.252664 0.063277 76 0 153
-0.114108 0.268006 0.132599 76 0 153
0.005613 0.268866 0.116792 76 0 153
0.226713 0.123404 0.037866 76 0 153
-0.231192 0.117735 0.336779 76 0 153
0.184941 -0.015219 0.606229 76 0 153
0.113281 0.581695 -0.107069 0 255 0
-0.258273 -0.176818 -0.200750 76 0 153
-0.244145 0.219990 0.154865 76 0 153
-0.010414 -0.327494 -0.543758 76 0 153
-0.232091 0.064123 0.318705 76 0 153
0.213527 0.143305 0.275482 76 0 153
0.235520 -0.620537 -0.202364 76 0 153
-0.039717 0.581702 -0.465651 0 255 0
0.159052 0.361013 -0.382644 0 255 0
0.013127 0.481077 -0.479425 0 255 0
-0.054107 0.483954 0.192061 0 255 0
0.140518 0.581698 -0.092602 0 255 0
-0.233213 0.581700 -0.056427 0 255 0
0.200818 -0.827938 -0.467316 76 0 153
0.017785 -0.819394 -0.479417 76 0 153
-0.152689 -0.579860 0.016546 76 0 153
0.075343 0.542298 0.503406 0 255 0
-0.124214 0.400798 -0.467973 0 255 0
-0.063496 0.580545 0.087843 0 255 0
-0.112718 0.023240 0.711737 153 76 0
0.211087 0.185986 0.312526 76 0 153
-0.099690 0.041344 0.740080 153 76 0
0.027858 -0.165541 0.885143 153 76 0
0.155922 0.264912 0.180120 76 0 153
0.178815 -0.583454 0.009240 76 0 153
-0.129635 -0.036393 0.854534 76 0 153
-0.039097 0.271883 -0.126203 76 0 153
-0.265216 -0.610178 -0.391895 76 0 153
-0.246625 0.413431 -0.444439 0 255 0
0.237963 -0.300291 -0.269622 76 0 153
-0.242523 -0.622688 -0.451845 76 0 153
0.231599 0.505090 -0.134559 0 255 0
0.241319 0.217077 -0.362016 76 0 153
-0.263418 0.149762 -0.409398 76 0 153
0.183690 0.105922 -0.474626 76 0 153
-0.196192 0.046729 0.670002 76 0 153
-0.263642 -0.717174 -0.348574 76 0 153
-0.262379 0.468176 -0.311119 0 255 0
-0.253719 0.575887 -0.116117 0 255 0
-0.255941 -0.141597 -0.136545 76 0 153
-0.104694 -0.114066 0.246412 76 0 153
-0.162882 -0.768814 0.016546 76 0 153
0.232331 0.063335 -0.114543 76 0 153
-0.263101 -0.769361 -0.412957 76 0 153
-0.264266 -0.777222 -0.365737 76 0 153
-0.228734 0.206364 0.381860 76 0 153
0.233194 0.384249 -0.173268 0 255 0
0.031145 0.336900 -0.444417 76 0 153
-0.006471 0.484937 0.499761 0 255 0
0.108318 0.581702 -0.459875 0 255 0
0.051844 -0.279586 0.048691 76 0 153
-0.141278 0.122435 -0.479417 76 0 153
-0.253545 -0.160631 -0.070584 76 0 153
-0.254393 -0.061325 -0.093939 76 0 153
0.169493 0.581702 -0.388374 0 255 0
0.034259 -0.095784 -0.479417 76 0 153
-0.171730 0.175281 0.655135 76 0 153
-0.259218 0.091357 -0.226765 76 0 153
0.039325 -0.140579 0.181952 76 0 153
-0.054571 0.569814 0.279256 0 255 0
-0.060887 0.581690 -0.180821 0 255 0
0.043908 -0.104634 0.752737 153 76 0
-0.259004 0.445081 -0.231943 0 255 0
0.194090 0.040470 0.481031 76 0 153
-0.006764 0.271868 -0.007361 76 0 153
0.238740 -0.641884 -0.418111 76 0 153
-0.262458 -0.367101 -0.315978 76 0 153
-0.254966 0.491604 -0.432863 0 255 0
-0.249650 0.020100 0.035025 76 0 153
-0.259257 -0.712098 -0.423937 76 0 153
-0.147248 0.456981 0.107817 0 255 0
-0.134832 -0.834750 -0.479417 76 0 153
0.238467 -0.337135 -0.283496 76 0 153
0.012447 -0.120969 0.751789 153 76 0
0.060912 0.372924 0.033489 0 255 0
-0.239348 0.271883 -0.069243 76 0 153
-0.264597 -0.414491 -0.374854 76 0 153
-0.257675 -0.077429 -0.184299 76 0 153
-0.119223 -0.156948 -0.479417 76 0 153
0.231860 0.199669 -0.101587 76 0 153
0.219221 -0.518773 -0.026133 76 0 153
-0.108561 0.484937 0.266649 0 255 0
-0.174800 -0.847342 -0.479417 76 0 153
0.239225 -0.218114 -0.304353 76 0 153
0.152800 -0.505520 0.015692 76 0 153
-0.164422 0.574770 0.215333 0 255 0
0.238247 0.116327 -0.277419 76 0 153
-0.228056 0.153885 0.380985 76 0 153
0.115373 0.209812 0.528878 76 0 153
0.168647 -0.533195 -0.477856 76 0 153
-0.253364 0.011670 -0.065602 76 0 153
-0.055795 -0.638880 0.016546 76 0 153
0.177953 -0.025467 0.654522 76 0 153
0.062170 0.271883 -0.191093 76 0 153
-0.038016 -0.106729 0.277667 76 0 153
0.016016 0.073774 0.784988 153 76 0
-0.264747 -0.703176 -0.378992 76 0 153
0.082244 -0.422942 -0.479417 76 0 153
-0.261934 0.213273 -0.301553 76 0 153
-0.224701 -0.337746 0.004000 76 0 153
-0.134972 0.271883 -0.176532 76 0 153
-0.257755 0.191667 -0.186506 76 0 153
-0.113631 0.484937 0.237659 0 255 0
-0.263439 -0.616110 -0.342984 76 0 153
0.055444 0.268014 0.132450 76 0 153
-0.197369 0.576562 0.184610 0 255 0
0.229340 0.138031 -0.032194 76 0 153
0.217296 -0.396820 -0.021784 76 0 153
0.176640 0.125932 0.670028 76 0 153
-0.171872 0.328898 -0.374228 76 0 153
0.237827 -0.098908 -0.265870 76 0 153
0.086604 -0.008296 0.793984 153 76 0
0.224095 0.158477 0.098657 76 0 153
0.204323 0.368276 -0.398221 0 255 0
0.016080 -0.101356 0.514631 76 0 153
-0.209490 0.355843 -0.240326 76 0 153
0.233362 -0.488332 -0.142945 76 0 153
-0.022336 0.072843 0.764138 153 76 0
0.131137 0.387025 -0.438432 0 255 0
0.239210 -0.611894 -0.303942 76 0 153
0.239995 0.447167 -0.323233 0 255 0
0.058257 0.581694 -0.242401 0 255 0
-0.026050 0.011827 0.921726 153 76 0
-0.259798 0.265981 -0.274536 76 0 153
-0.147445 0.336267 -0.395680 76 0 153
-0.265055 0.443622 -0.394884 0 255 0
-0.218588 0.084933 0.471694 76 0 153
0.035519 -0.132650 0.916924 153 76 0
-0.194886 0.131717 0.714692 76 0 153
-0.043615 0.484937 0.396206 0 255 0
-0.034028 0.313452 -0.454603 76 0 153
0.174166 0.271883 -0.435228 76 0 153
-0.217292 -0.386759 0.002041 76 0 153
-0.144611 -0.511230 0.016546 76 0 153
0.231181 0.250365 -0.082882 76 0 153
-0.052753 0.029795 0.701223 76 0 153
0.195924 0.204131 0.498286 76 0 153
-0.243619 -0.416379 -0.450377 76 0 153
-0.035951 -0.208166 0.097265 76 0 153
-0.206053 -0.001609 0.609059 76 0 153
0.241474 -0.395760 -0.366268 76 0 153
0.222710 0.581595 -0.051254 0 255 0
0.023408 -0.115357 0.240899 76 0 153
0.193267 0.015971 0.484276 76 0 153
0.236862 0.002639 -0.239311 76 0 153
0.052050 0.340544 -0.028142 76 0 153
-0.252479 0.462013 -0.106240 0 255 0
-0.219095 -0.012551 0.488761 76 0 153
0.231788 -0.140112 -0.099610 76 0 153
-0.232154 0.332961 -0.015111 0 255 0
0.235891 -0.459819 -0.212564 76 0 153
-0.008593 -0.740619 -0.479417 76 0 153
-0.021642 0.571866 0.254573 0 255 0
-0.019694 -0.557904 -0.479417 76 0 153
-0.076642 0.202741 -0.479417 76 0 153
-0.185576 0.508578 0.604804 0 255 0
-0.124674 0.581695 -0.168462 0 255 0
0.178327 -0.671974 -0.476580 76 0 153
0.241895 -0.072996 -0.377880 76 0 153
-0.149437 -0.882840 -0.479417 76 0 153
0.232639 -0.572342 -0.123038 76 0 153
-0.028685 -0.026053 0.705782 153 76 0
0.210633 -0.832398 -0.014432 76 0 153
0.133938 0.090965 -0.479417 76 0 153
-0.241892 0.143005 0.190984 76 0 153
0.235642 -0.731839 -0.205720 76 0 153
-0.069499 0.259526 0.240706 76 0 153
-0.098177 -0.716444 0.016546 76 0 153
-0.263897 0.568244 -0.352160 0 255 0
0.045942 -0.161755 -0.479417 76 0 153
-0.062409 0.267750 0.137313 76 0 153
0.108317 -0.174479 0.132225 76 0 153
0.127583 -0.136850 0.188204 76 0 153
0.234364 0.477193 -0.189381 0 255 0
0.117053 0.292566 -0.026485 76 0 153
-0.101676 -0.099700 0.874170 153 76 0
-0.086211 -0.291624 0.043156 76 0 153
-0.259972 -0.194046 -0.247522 76 0 153
0.157610 0.271883 -0.244743 76 0 153
-0.034358 0.266159 0.165934 76 0 153
0.241023 -0.298127 -0.405708 76 0 153
0.082965 -0.039931 0.784182 153 76 0
0.192949 -0.166655 -0.470777 76 0 153
0.117549 0.484937 0.291557 0 255 0
0.227619 -0.826549 -0.047273 76 0 153
0.095253 -0.091487 0.767877 153 76 0
0.201000 0.082807 0.415457 76 0 153
0.033647 -0.764534 -0.479417 76 0 153
0.179964 0.038931 0.609606 76 0 153
0.213505 0.189583 0.279584 76 0 153
-0.210925 0.268278 -0.350325 76 0 153
-0.259006 -0.821406 -0.220939 76 0 153
0.186948 0.532415 0.413278 0 255 0
-0.022614 0.581692 -0.226499 0 255 0
0.192770 0.224491 0.459990 76 0 153
0.059592 0.096607 0.873230 76 0 153
0.226515 0.525625 -0.047184 0 255 0
-0.232140 0.070067 -0.460726 76 0 153
-0.258325 0.233311 -0.202189 76 0 153
0.240947 -0.111519 -0.351758 76 0 153
0.240734 0.185181 -0.345895 76 0 153
-0.231561 0.295496 -0.281536 76 0 153
0.239990 0.014513 -0.325434 76 0 153
-0.250313 -0.467035 -0.441445 76 0 153
-0.000057 0.581688 -0.149685 0 255 0
0.011124 -0.270166 0.053669 76 0 153
0.077943 -0.056039 0.923561 153 76 0
0.225654 0.030414 0.064237 76 0 153
0.233368 -0.325225 -0.143096 76 0 153
0.111768 -0.502685 0.016546 76 0 153
-0.253883 -0.190748 -0.079893 76 0 153
0.163720 0.270410 0.084878 76 0 153
0.232726 -0.363627 -0.125428 76 0 153
-0.092319 -0.539280 -0.479417 76 0 153
-0.224785 -0.031694 0.407545 76 0 153
0.068359 -0.054459 0.945212 153 76 0
-0.105267 -0.077379 0.918022 153 76 0
0.230353 -0.078130 -0.060088 76 0 153
0.160197 -0.001219 0.811870 76 0 153
-0.136182 0.271883 -0.251610 76 0 153
-0.166288 0.485785 0.446041 0 255 0
0.237102 -0.391420 -0.245925 76 0 153
0.233772 -0.083199 -0.154231 76 0 153
0.035729 0.581685 -0.106299 0 255 0
0.112315 -0.101356 0.334415 76 0 153
-0.239734 0.271883 -0.395342 76 0 153
-0.190623 -0.002481 0.749437 76 0 153
-0.134555 0.271883 -0.409818 76 0 153
-0.247412 -0.164787 0.045436 76 0 153
-0.029046 -0.882755 -0.479417 76 0 153
0.223944 0.059085 0.100598 76 0 153
-0.209091 0.581676 -0.019180 0 255 0
-0.055319 -0.565032 -0.479417 76 0 153
-0.009045 0.133722 0.778709 76 0 153
-0.206597 0.248359 0.328131 76 0 153
-0.254919 0.325356 -0.145831 0 255 0
-0.260545 -0.763086 -0.263317 76 0 153
0.008168 0.344094 -0.020439 76 0 153
-0.088003 0.271883 -0.365659 76 0 153
-0.144097 0.185354 0.621027 76 0 153
-0.255084 -0.635337 -0.112941 76 0 153
-0.039365 -0.518403 -0.479417 76 0 153
-0.038924 0.361246 0.028862 0 255 0
-0.037982 -0.670088 0.016546 76 0 153
0.111330 0.251617 0.305652 76 0 153
-0.105562 -0.053316 0.849091 153 76 0
-0.199727 -0.023639 0.668368 76 0 153
-0.079508 0.448770 -0.479425 0 255 0
0.033055 0.237059 -0.479417 76 0 153
0.184351 -0.355796 -0.474352 76 0 153
-0.255296 -0.774756 -0.118805 76 0 153
0.139864 0.567971 0.299592 0 255 0
-0.228674 0.292566 -0.073313 76 0 153
0.147547 -0.110613 -0.479417 76 0 153
-0.181158 -0.698202 0.014979 76 0 153
-0.193458 0.550195 0.450856 0 255 0
0.190561 0.292566 -0.101999 76 0 153
-0.254458 -0.236650 -0.095713 76 0 153
-0.225128 0.320371 -0.211978 76 0 153
0.086787 0.023212 0.725138 153 76 0
-0.101301 -0.104560 0.291384 76 0 153
0.046014 -0.101437 0.332061 76 0 153
0.178749 0.374148 -0.217522 76 0 153
0.221765 0.528328 -0.447056 0 255 0
-0.246113 0.559870 0.006569 0 255 0
-0.035481 0.128688 -0.479417 76 0 153
0.147581 0.267010 0.150913 76 0 153
-0.250354 0.080701 0.017227 76 0 153
0.185228 -0.136046 0.159165 76 0 153
-0.253252 -0.014781 -0.062511 76 0 153
0.099913 -0.092973 0.830005 76 0 153
-0.068978 0.484937 0.323446 0 255 0
-0.009754 0.549956 0.452596 0 255 0
-0.258840 -0.761415 -0.216371 76 0 153
0.056433 0.484937 0.542826 0 255 0
-0.193371 0.053077 0.697251 76 0 153
0.191870 -0.454689 0.002479 76 0 153
-0.255981 -0.745431 -0.137645 76 0 153
-0.238979 0.044375 -0.455436 76 0 153
0.067387 -0.845692 0.016546 76 0 153
-0.161763 0.121756 0.811151 76 0 153
0.240775 -0.798563 -0.408171 76 0 153
0.236338 0.320113 -0.232421 0 255 0
-0.009204 0.539789 0.519402 0 255 0
-0.071495 0.271883 -0.250991 76 0 153
0.214130 -0.051873 0.234623 76 0 153
0.058940 0.023801 0.806693 153 76 0
-0.228529 0.103544 0.367052 76 0 153
-0.190939 0.220421 0.481603 76 0 153
0.232192 0.224131 -0.110736 76 0 153
-0.194225 0.491054 -0.477115 0 255 0
0.064487 0.469851 0.132617 0 255 0
-0.094256 0.549710 0.454341 0 255 0
0.240644 -0.513055 -0.343418 76 0 153
-0.077317 -0.142265 0.179124 76 0 153
0.047514 0.581710 -0.356618 0 255 0
-0.256619 0.061185 -0.155225 76 0 153
-0.024516 -0.101356 0.395179 76 0 153
-0.148012 0.222317 0.473156 76 0 153
0.204910 -0.026202 -0.464143 76 0 153
-0.230629 -0.194238 0.067091 76 0 153
0.101122 0.581605 0.016657 0 255 0
0.135775 -0.284534 -0.479417 76 0 153
-0.226105 0.413451 -0.463895 0 255 0
-0.259406 0.516885 -0.234075 0 255 0
-0.055746 -0.101356 0.368704 76 0 153
0.232566 -0.098959 -0.121038 76 0 153
-0.259998 -0.636611 -0.248258 76 0 153
-0.253321 -0.366384 -0.064426 76 0 153
0.129139 -0.094839 0.554970 76 0 153
0.149335 0.199495 0.568984 76 0 153
-0.003319 0.230996 0.430000 76 0 153
-0.002195 0.484937 0.290396 0 255 0
0.061971 -0.724210 0.016546 76 0 153
0.190930 -0.095651 -0.471616 76 0 153
0.212617 -0.609276 -0.016907 76 0 153
0.125096 0.247421 0.334157 76 0 153
0.230342 -0.725262 -0.437703 76 0 153
-0.202851 0.292566 -0.033379 76 0 153
0.140089 0.524593 0.604184 0 255 0
-0.252351 -0.120401 -0.037716 76 0 153
0.238179 -0.679060 -0.275562 76 0 153
-0.265058 -0.674495 -0.387567 76 0 153
0.096863 0.484937 0.246338 0 255 0
0.028911 0.044695 0.814265 153 76 0
-0.214287 -0.611640 0.002772 76 0 153
0.225778 0.002320 0.061315 76 0 153
0.196439 -0.030791 0.469407 76 0 153
0.121342 0.570689 0.269515 0 255 0
0.124238 -0.149083 0.167693 76 0 153
-0.081137 0.244615 0.352166 76 0 153
-0.248741 -0.065306 0.058088 76 0 153
-0.260513 -0.464819 -0.262430 76 0 153
0.221205 -0.139095 0.082627 76 0 153
0.154740 -0.045513 0.806434 76 0 153
-0.194522 0.335860 0.014473 0 255 0
0.073545 0.004798 0.854530 153 76 0
-0.184164 -0.008425 0.803255 76 0 153
0.077770 0.207626 -0.479417 76 0 153
-0.108965 0.325438 -0.036803 76 0 153
0.225773 -0.465024 -0.443784 76 0 153
-0.202236 0.440302 0.062758 0 255 0
-0.129618 0.130076 0.788593 76 0 153
0.198859 -0.537917 -0.468324 76 0 153
0.124449 0.220987 -0.479417 76 0 153
-0.178572 -0.089138 0.451486 76 0 153
0.054988 0.153539 0.722786 76 0 153
-0.007799 0.390976 -0.043763 76 0 153
-0.265059 0.554510 -0.384108 0 255 0
-0.054244 -0.883386 -0.479417 76 0 153
-0.105489 0.156715 0.713213 76 0 153
0.237384 -0.757755 -0.253683 76 0 153
0.229864 -0.118570 -0.046624 76 0 153
-0.258659 0.540189 -0.424204 0 255 0
-0.237453 0.152383 0.261374 76 0 153
-0.253498 -0.667117 -0.069292 76 0 153
-0.182001 -0.166797 0.137528 76 0 153
-0.265182 -0.292751 -0.390979 76 0 153
0.083707 -0.797420 0.016546 76 0 153
0.073449 0.015391 0.767758 153 76 0
-0.038306 -0.021929 0.951978 153 76 0
-0.101676 -0.887526 -0.479417 76 0 153
0.164000 0.122925 0.782201 76 0 153
0.084137 0.484937 0.613664 0 255 0
0.012993 0.216251 -0.479417 76 0 153
-0.250529 0.266667 -0.027956 76 0 153
0.097915 -0.401176 -0.479417 76 0 153
-0.160039 0.484937 0.265259 0 255 0
0.072565 -0.016968 -0.479417 76 0 153
-0.260118 -0.698937 -0.251560 76 0 153
0.234408 0.137870 -0.171750 76 0 153
0.024167 0.484937 0.223309 0 255 0
-0.091536 0.484937 0.225209 0 255 0
0.024413 -0.101356 0.553472 76 0 153
-0.214358 0.105248 0.519577 76 0 153
0.079719 0.259997 0.235986 76 0 153
-0.066030 -0.351113 0.023723 76 0 153
0.169841 0.570189 0.275064 0 255 0
-0.024012 0.493975 0.646012 0 255 0
-0.256248 -0.304337 -0.145013 76 0 153
0.236308 -0.491430 -0.224062 76 0 153
0.042679 0.581690 -0.173356 0 255 0
0.004320 -0.161306 -0.479417 76 0 153
0.211762 0.228585 0.308165 76 0 153
0.162035 0.581699 -0.044256 0 255 0
0.133744 -0.051056 0.850261 76 0 153
0.052363 0.287275 -0.453107 76 0 153
0.112613 -0.712292 -0.479417 76 0 153
0.044871 0.484937 0.584005 0 255 0
0.068775 0.550583 0.448136 0 255 0
0.003723 0.241704 0.370856 76 0 153
-0.003433 0.516558 0.645010 0 255 0
-0.229632 0.581702 -0.193874 0 255 0
-0.255654 -0.511869 -0.433101 76 0 153
0.233071 0.563234 -0.158508 0 255 0
0.230770 -0.002878 -0.071586 76 0 153
-0.258240 0.167545 -0.199842 76 0 153
-0.194152 0.581702 -0.430104 0 255 0
-0.136081 0.229144 0.439751 76 0 153
-0.228243 0.066762 0.365102 76 0 153
-0.110283 0.484937 0.349144 0 255 0
-0.096065 0.484937 0.524047 0 255 0
0.118282 -0.742583 -0.479417 76 0 153
-0.244131 -0.515235 -0.030835 76 0 153
0.150842 0.255890 -0.479417 76 0 153
0.192308 0.173273 0.530056 76 0 153
-0.235456 0.057998 0.274838 76 0 153
-0.072577 -0.525162 0.016546 76 0 153
-0.262912 0.036286 -0.328472 76 0 153
0.233341 0.169669 -0.142371 76 0 153
0.228946 -0.494222 -0.055285 76 0 153
0.214592 0.294478 -0.225361 76 0 153
-0.165770 -0.680609 0.016546 76 0 153
0.209243 0.292566 -0.037540 0 255 0
0.170883 -0.055440 0.606045 76 0 153
0.005692 0.434676 -0.479425 0 255 0
-0.039044 -0.861405 0.016546 76 0 153
0.239051 0.158629 -0.299563 76 0 153
-0.004027 -0.069841 0.941034 153 76 0
-0.155187 -0.154273 0.158980 76 0 153
-0.080440 -0.101356 0.451846 76 0 153
0.241214 -0.726177 -0.359126 76 0 153
-0.019572 0.183869 0.626056 76 0 153
0.165268 0.187189 0.614813 76 0 153
-0.258402 -0.008166 -0.204292 76 0 153
-0.255558 -0.242722 -0.126014 76 0 153
-0.076396 0.557355 0.396908 0 255 0
0.133961 0.289449 -0.057345 76 0 153
-0.227116 0.006205 0.375553 76 0 153
0.181935 0.271883 -0.115763 76 0 153
0.235904 -0.368533 -0.212943 76 0 153
-0.103437 0.000005 0.755213 153 76 0
0.031807 -0.278294 -0.479417 76 0 153
-0.036063 0.388818 -0.442278 0 255 0
-0.255031 0.009310 -0.111494 76 0 153
-0.114620 -0.002056 0.718152 153 76 0
0.136185 0.263704 0.193848 76 0 153
0.092443 0.380898 -0.425292 0 255 0
-0.245158 0.201407 0.134290 76 0 153
-0.202634 0.223173 -0.476238 76 0 153
0.148766 0.533549 0.555616 0 255 0
-0.025595 -0.711492 0.016546 76 0 153
-0.062778 -0.442301 -0.479417 76 0 153
0.053900 -0.887833 0.016546 76 0 153
-0.253785 -0.371704 -0.436814 76 0 153
-0.250476 0.202157 0.013914 76 0 153
-0.099485 0.369886 -0.053528 76 0 153
-0.170212 0.292566 -0.000084 0 255 0
-0.259262 -0.394077 -0.227982 76 0 153
-0.131488 0.271883 -0.334082 76 0 153
0.039964 -0.101356 0.357946 76 0 153
-0.095735 -0.324628 -0.479417 76 0 153
0.234658 0.107278 -0.178631 76 0 153
-0.090316 -0.182007 0.123128 76 0 153
-0.059061 0.292566 0.010095 0 255 0
-0.215252 -0.175044 0.102614 76 0 153
-0.256722 -0.557820 -0.158055 76 0 153
0.241392 -0.646090 -0.364032 76 0 153
0.026110 -0.021138 0.681671 76 0 153
-0.232977 -0.723256 -0.460080 76 0 153
-0.135826 -0.076255 0.842917 76 0 153
0.232284 -0.724451 -0.113266 76 0 153
-0.116930 -0.057130 0.737767 153 76 0
-0.261284 0.576066 -0.281920 0 255 0
-0.166706 0.271883 -0.420662 76 0 153
0.224314 -0.736461 -0.037540 76 0 153
0.233285 -0.034826 -0.140819 76 0 153
-0.255005 -0.194484 -0.110768 76 0 153
0.242359 -0.093219 -0.390645 76 0 153
0.149598 -0.174185 -0.479417 76 0 153
0.226102 -0.235609 -0.001968 76 0 153
0.188521 -0.493538 0.004969 76 0 153
0.138941 0.577201 0.173374 0 255 0
-0.053442 -0.318998 -0.528410 76 0 153
0.054620 -0.025199 0.948360 153 76 0
0.239902 -0.410983 -0.323002 76 0 153
-0.024894 0.581698 -0.325360 0 255 0
0.081625 0.401673 0.049807 0 255 0
0.241572 0.388468 -0.366110 0 255 0
-0.074879 0.294751 -0.013455 76 0 153
-0.242948 0.099083 0.171279 76 0 153
-0.256306 -0.456417 -0.146606 76 0 153
-0.078679 -0.222973 0.084142 76 0 153
-0.117698 -0.101356 0.492539 76 0 153
-0.083241 0.513182 -0.479425 0 255 0
-0.131669 0.484937 0.512054 0 255 0
0.093149 0.131905 0.783635 76 0 153
0.183799 0.284989 -0.352441 76 0 153
-0.122678 0.241060 0.374992 76 0 153
-0.064191 -0.062903 0.691637 153 76 0
-0.246769 0.581702 -0.235484 0 255 0
-0.034049 -0.271264 -0.560400 76 0 153
-0.036444 0.579515 0.121780 0 255 0
0.153047 -0.467851 -0.479417 76 0 153
0.224269 0.034002 0.093800 76 0 153
-0.261553 -0.674676 -0.291058 76 0 153
0.207581 0.172288 0.355901 76 0 153
-0.251879 -0.505332 -0.056019 76 0 153
-0.119800 0.457880 -0.479425 0 255 0
0.164473 -0.081071 0.467237 76 0 153
0.220682 -0.054545 0.165775 76 0 153
-0.184598 -0.652401 0.014537 76 0 153
-0.235792 -0.007306 0.273899 76 0 153
0.189029 -0.095879 0.229492 76 0 153
-0.191698 -0.193471 -0.477826 76 0 153
0.206417 0.297322 -0.172558 76 0 153
0.231904 0.391145 -0.146278 0 255 0
-0.183073 0.491372 0.221324 0 255 0
0.007321 -0.684149 0.016546 76 0 153
0.143657 -0.418235 -0.479417 76 0 153
-0.262367 0.239352 -0.313459 76 0 153
-0.029410 -0.634018 -0.502481 76 0 153
-0.162584 0.330027 -0.079032 76 0 153
0.173571 -0.134695 -0.477206 76 0 153
0.018014 0.359698 0.028314 0 255 0
-0.214238 -0.211944 0.072382 76 0 153
-0.184143 0.400880 0.044810 0 255 0
-0.059015 0.271883 -0.375486 76 0 153
-0.016446 -0.050733 0.948369 153 76 0
0.102289 -0.782154 -0.479417 76 0 153
0.047296 -0.029144 0.704596 153 76 0
0.119438 -0.091422 0.757455 76 0 153
-0.084954 -0.074419 -0.479417 76 0 153
-0.201123 0.388388 -0.441357 0 255 0
-0.251449 -0.870481 -0.053423 76 0 153
-0.198228 0.024313 0.665697 76 0 153
-0.258862 0.376372 -0.232331 0 255 0
-0.179853 0.026689 0.832850 76 0 153
0.236294 -0.819516 -0.223658 76 0 153
0.163572 -0.055758 0.675388 76 0 153
-0.259070 -0.078570 -0.222695 76 0 153
-0.123869 -0.835620 0.016546 76 0 153
0.156614 0.581700 -0.123745 0 255 0
0.124635 -0.095412 0.581193 76 0 153
0.175534 0.581701 -0.168335 0 255 0
-0.263712 0.424164 -0.406868 0 255 0
0.192907 -0.235712 -0.470794 76 0 153
0.202310 0.540646 0.230036 0 255 0
-0.198797 0.259706 -0.476892 76 0 153
-0.017672 0.581702 -0.448245 0 255 0
-0.214071 0.130151 0.530291 76 0 153
0.227090 -0.446964 -0.044080 76 0 153
-0.200435 0.121410 0.659197 76 0 153
-0.192265 -0.156526 -0.477752 76 0 153
0.022069 0.485052 0.627075 0 255 0
-0.229223 0.241967 0.345114 76 0 153
0.240133 0.579417 -0.352740 0 255 0
-0.204803 0.146168 0.626155 76 0 153
-0.133034 0.160947 0.700456 76 0 153
0.167371 0.035284 0.736906 76 0 153
0.005451 0.125195 0.801828 76 0 153
0.048043 -0.765944 0.016546 76 0 153
-0.256864 0.224848 -0.161969 76 0 153
0.015440 -0.131740 0.198875 76 0 153
0.050663 0.035961 0.830822 153 76 0
0.054789 0.253735 0.288256 76 0 153
-0.121071 -0.008332 -0.479417 76 0 153
-0.020059 -0.444790 -0.479417 76 0 153
-0.123391 -0.756722 0.016546 76 0 153
-0.082163 -0.120240 -0.479417 76 0 153
0.066930 -0.733301 -0.479417 76 0 153
-0.048633 -0.002888 0.714674 153 76 0
0.013952 -0.298769 0.040316 76 0 153
-0.174491 0.069979 0.874704 76 0 153
-0.260012 -0.254797 -0.248642 76 0 153
-0.235306 0.581702 -0.155703 0 255 0
0.238672 -0.708403 -0.289122 76 0 153
-0.074281 -0.860817 -0.479417 76 0 153
-0.258049 0.433553 -0.212284 0 255 0
-0.198058 0.581702 -0.330368 0 255 0
-0.168087 0.271883 -0.330255 76 0 153
0.075785 -0.126703 0.928815 153 76 0
-0.263774 0.007162 -0.352195 76 0 153
0.235520 0.033137 -0.202354 76 0 153
-0.246454 0.222809 0.108449 76 0 153
-0.032197 -0.304104 -0.561603 76 0 153
-0.258291 -0.125200 -0.201240 76 0 153
-0.092833 0.030798 0.785438 153 76 0
-0.256178 -0.425786 -0.143066 76 0 153
-0.095037 -0.055342 0.713885 153 76 0
-0.042943 -0.169082 -0.479417 76 0 153
0.237401 -0.835077 -0.254139 76 0 153
0.202593 0.443417 0.037523 0 255 0
0.093200 0.294915 -0.434459 76 0 153
-0.161756 -0.854150 0.016546 76 0 153
0.084238 0.250127 0.316780 76 0 153
-0.262066 -0.109857 -0.305174 76 0 153
-0.077217 0.177145 0.648824 76 0 153
0.141204 -0.882443 0.016546 76 0 153
-0.121172 0.330307 0.020209 0 255 0
0.051378 0.075595 0.726092 153 76 0
-0.226203 -0.063008 0.276344 76 0 153
0.190635 -0.069904 0.333280 76 0 153
-0.212067 -0.055905 0.449252 76 0 153
-0.248274 -0.086308 0.068468 76 0 153
0.122537 0.581701 -0.360180 0 255 0
-0.052713 0.573711 0.229627 0 255 0
0.065762 -0.185941 -0.479417 76 0 153
0.152731 0.058546 0.866226 76 0 153
-0.257209 0.250212 -0.429006 76 0 153
-0.181668 0.564608 0.333613 0 255 0
-0.240374 0.383334 -0.016718 0 255 0
0.100508 0.257025 0.261241 76 0 153
-0.182544 0.385949 -0.152712 76 0 153
0.074268 -0.118728 0.892775 153 76 0
-0.199204 0.271883 -0.397949 76 0 153
0.084109 0.581689 -0.068316 0 255 0
-0.053235 -0.295869 -0.529983 76 0 153
0.216481 -0.468367 -0.021728 76 0 153
-0.097955 0.484937 0.583627 0 255 0
-0.225952 -0.588358 -0.465517 76 0 153
-0.211568 0.299351 -0.131148 76 0 153
0.078634 -0.443366 0.016546 76 0 153
-0.108324 0.300809 -0.028934 76 0 153
-0.257241 -0.099957 -0.428983 76 0 153
-0.200863 0.069845 0.636561 76 0 153
-0.259504 -0.590928 -0.234640 76 0 153
0.233737 0.241813 -0.153280 76 0 153
0.227114 0.447264 -0.057801 0 255 0
-0.255710 0.501514 -0.159080 0 255 0
-0.260869 0.123727 -0.272238 76 0 153
0.059224 -0.809961 -0.479417 76 0 153
-0.004787 -0.113086 0.724923 153 76 0
-0.205566 0.271883 -0.052827 76 0 153
-0.082152 0.580210 0.101539 0 255 0
-0.057194 0.031273 0.842905 153 76 0
-0.146492 0.581693 -0.053714 0 255 0
-0.224645 0.078527 0.405639 76 0 153
0.050814 0.041972 0.781526 153 76 0
0.235128 -0.507469 -0.191569 76 0 153
-0.250774 0.321897 -0.063735 0 255 0
-0.075035 0.534479 0.550266 0 255 0
-0.012976 0.581683 -0.061045 0 255 0
-0.195843 0.340781 -0.325764 76 0 153
0.077903 -0.647650 -0.479417 76 0 153
-0.265039 -0.135417 -0.387021 76 0 153
0.236883 0.444553 -0.247175 0 255 0
-0.257939 -0.578887 -0.191548 76 0 153
-0.261558 -0.601304 -0.291182 76 0 153
-0.235559 -0.101445 0.154456 76 0 153
-0.251805 -0.788786 -0.055574 76 0 153
-0.234524 0.102808 0.293873 76 0 153
0.191278 -0.281467 -0.471472 76 0 153
0.087827 -0.254320 0.062157 76 0 153
-0.203917 0.566211 0.318802 0 255 0
-0.116313 -0.191581 0.111964 76 0 153
-0.039042 0.484937 0.282634 0 255 0
-0.220766 -0.828123 -0.002045 76 0 153
-0.187893 0.580454 0.091620 0 255 0
-0.072014 0.271864 0.003879 76 0 153
-0.258599 0.056840 -0.209720 76 0 153
0.008565 0.581702 -0.424547 0 255 0
0.193807 0.148097 0.507726 76 0 153
-0.132905 0.576212 0.190720 0 255 0
-0.140102 0.484937 0.342573 0 255 0
-0.223403 -0.150591 0.119934 76 0 153
0.226383 -0.108640 0.046748 76 0 153
-0.216712 0.537242 0.343118 0 255 0
0.148758 0.356449 -0.353629 76 0 153
-0.185574 -0.066749 0.592801 76 0 153
-0.080679 -0.741432 -0.479417 76 0 153
0.222158 0.018833 0.133706 76 0 153
0.172687 0.142309 0.712867 76 0 153
-0.049245 -0.833650 0.016546 76 0 153
-0.203909 0.278913 -0.107876 76 0 153
0.030501 -0.579505 -0.485700 76 0 153
0.057661 -0.260301 0.058882 76 0 153
-0.251984 -0.585195 -0.056650 76 0 153
0.198607 -0.569835 -0.002530 76 0 153
-0.227185 0.580453 0.091548 0 255 0
0.233208 0.103658 -0.138692 76 0 153
-0.221819 0.179961 0.458619 76 0 153
-0.026727 0.311302 -0.008920 76 0 153
-0.130271 0.581376 0.044989 0 255 0
-0.182463 0.271883 -0.171766 76 0 153
0.220334 0.051214 -0.451028 76 0 153
-0.208138 0.044969 0.566055 76 0 153
-0.062886 0.581692 -0.218819 0 255 0
-0.199604 0.169712 0.659934 76 0 153
0.029146 -0.002904 -0.479417 76 0 153
-0.040768 0.565718 0.323372 0 255 0
-0.155821 -0.086618 0.664915 76 0 153
0.073957 -0.069103 0.761401 153 76 0
-0.250419 -0.214882 -0.003467 76 0 153
0.045495 -0.415155 -0.479417 76 0 153
0.058386 -0.552763 -0.479417 76 0 153
0.056847 0.023056 0.854718 153 76 0
-0.104325 0.413092 -0.479425 0 255 0
0.019805 -0.105106 0.284579 76 0 153
-0.261654 -0.187726 -0.293844 76 0 153
0.198784 0.271883 -0.147718 76 0 153
0.120336 0.528018 0.586202 0 255 0
-0.249569 0.512364 -0.052546 0 255 0
0.120385 -0.375760 -0.479417 76 0 153
0.070147 -0.114853 0.857072 153 76 0
0.183419 -0.065358 0.441318 76 0 153
-0.001203 -0.780121 0.016546 76 0 153
-0.252816 -0.254643 -0.050500 76 0 153
-0.231456 0.581702 -0.120872 0 255 0
0.098704 0.361555 -0.402128 76 0 153
-0.260639 -0.737344 -0.265890 76 0 153
-0.254439 0.048764 -0.095197 76 0 153
-0.030372 -0.341824 -0.508964 76 0 153
-0.223061 0.292566 -0.017513 0 255 0
-0.125644 0.581702 -0.413027 0 255 0
0.230812 0.209858 -0.072727 76 0 153
0.037922 0.581329 0.051038 0 255 0
-0.018207 0.581696 -0.293080 0 255 0
-0.262425 -0.227934 -0.315064 76 0 153
-0.096073 -0.572091 0.016546 76 0 153
0.019583 -0.883695 -0.479417 76 0 153
0.053270 0.484937 0.290611 0 255 0
0.238323 -0.797294 -0.279527 76 0 153
-0.015969 0.580041 0.108262 0 255 0
-0.081394 -0.673600 0.016546 76 0 153
0.196244 0.544172 0.326997 0 255 0
0.095472 0.535049 0.546975 0 255 0
-0.265333 0.503097 -0.391651 0 255 0
-0.262562 0.375136 -0.319217 0 255 0
-0.020430 -0.610389 0.016546 76 0 153
-0.078506 0.399717 -0.465653 0 255 0
-0.201354 0.572711 0.243160 0 255 0
-0.115934 -0.659910 -0.479417 76 0 153
-0.205467 0.271872 -0.018610 76 0 153
0.158127 -0.019368 0.824878 76 0 153
-0.165377 -0.491072 -0.479417 76 0 153
-0.053782 -0.581858 -0.504726 76 0 153
-0.246249 0.002265 0.111200 76 0 153
0.209393 0.184003 -0.460673 76 0 153
0.234189 -0.597684 -0.429728 76 0 153
-0.032024 0.398818 -0.463726 0 255 0
0.202248 0.058585 0.399948 76 0 153
-0.264831 -0.629916 -0.381301 76 0 153
-0.017652 0.253882 0.287050 76 0 153
-0.046367 0.484937 0.609076 0 255 0
0.232768 0.185540 -0.126590 76 0 153
-0.241850 0.231878 0.195037 76 0 153
-0.158766 0.270201 0.092250 76 0 153
-0.251652 -0.744200 -0.054652 76 0 153
-0.195646 0.197430 0.576940 76 0 153
0.198301 0.326995 -0.259285 76 0 153
0.237349 0.541872 -0.251855 0 255 0
-0.014308 0.207726 0.537275 76 0 153
-0.046359 -0.732015 -0.479417 76 0 153
0.087792 0.581689 -0.025892 0 255 0
-0.056522 -0.100462 0.722371 153 76 0
0.240048 -0.868456 -0.327028 76 0 153
-0.021291 0.484937 0.248697 0 255 0
-0.164061 0.395167 -0.455895 0 255 0
-0.239520 0.288078 -0.239966 76 0 153
-0.052758 -0.172847 0.910018 153 76 0
0.124594 0.484937 0.258686 0 255 0
-0.252159 -0.184533 -0.032430 76 0 153
0.040196 0.271867 -0.004293 76 0 153
-0.113685 0.479499 -0.479425 0 255 0
0.189062 0.048393 0.529264 76 0 153
-0.130261 0.219343 0.486409 76 0 153
-0.229664 0.469887 0.053729 0 255 0
-0.130583 -0.098513 0.635080 76 0 153
0.079214 0.566671 0.313974 0 255 0
-0.174644 0.490597 0.507659 0 255 0
-0.140021 0.484937 0.431030 0 255 0
0.160382 0.368663 -0.141014 76 0 153
-0.103660 0.401499 0.049698 0 255 0
0.164994 0.500298 0.435130 0 255 0
-0.262184 -0.746239 -0.308438 76 0 153
-0.221708 0.138296 0.452200 76 0 153
-0.210019 -0.474347 -0.473166 76 0 153
0.096453 0.271883 -0.329825 76 0 153
0.023359 -0.491725 0.016546 76 0 153
0.229094 -0.275521 -0.035222 76 0 153
-0.079225 0.576420 0.187078 0 255 0
-0.017986 0.390937 -0.421030 76 0 153
-0.123724 -0.731687 -0.479417 76 0 153
0.174910 0.227820 0.446721 76 0 153
0.237744 0.258436 -0.263595 76 0 153
0.201136 -0.051771 0.340890 76 0 153
0.158260 0.348136 -0.118191 76 0 153
-0.116930 -0.043531 0.689456 153 76 0
-0.133107 0.570804 0.268315 0 255 0
0.220282 0.032601 0.167575 76 0 153
0.168461 0.335374 -0.343110 76 0 153
0.194631 0.271883 -0.308658 76 0 153
0.138750 0.095305 0.876429 76 0 153
-0.112427 -0.161957 0.147347 76 0 153
0.191301 0.020515 -0.471461 76 0 153
0.230959 -0.571656 -0.076792 76 0 153
0.226637 -0.517908 -0.442633 76 0 153
-0.205348 0.502260 0.159779 0 255 0
-0.246403 -0.230464 -0.446647 76 0 153
0.082605 0.271883 -0.279925 76 0 153
-0.258411 -0.649588 -0.204548 76 0 153
0.040541 0.271883 -0.221776 76 0 153
-0.004174 -0.743208 0.016546 76 0 153
-0.256157 -0.652285 -0.142485 76 0 153
-0.235439 0.239407 0.296111 76 0 153
-0.069068 0.435419 0.079107 0 255 0
0.240472 -0.757189 -0.338696 76 0 153
-0.096898 0.484937 0.313247 0 255 0
-0.237263 0.202763 0.266364 76 0 153
-0.262455 -0.327632 -0.315893 76 0 153
-0.009854 0.480248 -0.479425 0 255 0
0.160930 0.269403 0.106920 76 0 153
0.238576 0.000150 -0.286499 76 0 153
-0.160350 0.255452 0.274160 76 0 153
-0.110765 -0.220284 0.086525 76 0 153
-0.083252 0.581678 -0.023003 0 255 0
0.241909 -0.478203 -0.378268 76 0 153
-0.145077 0.526431 0.594543 0 255 0
-0.103167 0.357090 0.027399 0 255 0
-0.234832 -0.257366 0.020628 76 0 153
0.181193 -0.084040 0.302725 76 0 153
-0.041974 0.271883 -0.289679 76 0 153
-0.123360 0.143104 0.753276 76 0 153
-0.049275 -0.119526 0.763660 153 76 0
-0.149360 0.484937 0.527550 0 255 0
-0.250597 -0.052078 0.010564 76 0 153
0.075449 -0.513062 -0.479417 76 0 153
-0.169711 -0.872686 -0.479417 76 0 153
-0.264603 -0.246051 -0.375028 76 0 153
0.138092 -0.249372 0.065501 76 0 153
0.073066 0.083310 0.888876 76 0 153
-0.069389 0.575358 -0.479425 0 255 0
-0.169166 0.581701 -0.322329 0 255 0
0.078600 0.445783 -0.479425 0 255 0
-0.061073 0.481190 0.171162 0 255 0
-0.150312 0.178183 -0.479417 76 0 153
-0.253985 0.380347 -0.130932 0 255 0
0.002964 0.271883 -0.422886 76 0 153
0.183442 0.093523 0.594764 76 0 153
-0.228881 -0.068216 0.245658 76 0 153
0.218463 0.053861 0.196342 76 0 153
-0.102026 0.271883 -0.175512 76 0 153
0.121780 0.271860 0.014789 76 0 153
-0.179406 0.089144 0.834282 76 0 153
0.026609 -0.183776 0.120991 76 0 153
0.232713 0.571774 -0.431440 0 255 0
0.057297 0.271883 -0.078729 76 0 153
-0.247460 0.209752 0.088055 76 0 153
0.233115 -0.412200 -0.136156 76 0 153
0.188057 -0.027118 0.559564 76 0 153
0.232515 -0.153623 -0.119610 76 0 153
0.128468 0.418608 0.062758 0 255 0
0.110111 0.249740 -0.479417 76 0 153
-0.256467 0.087943 -0.151047 76 0 153
0.240953 -0.661090 -0.406401 76 0 153
-0.231837 -0.449010 -0.460963 76 0 153
0.197648 0.510031 0.132767 0 255 0
-0.134869 0.428112 0.071230 0 255 0
0.207181 0.107487 0.351624 76 0 153
-0.209877 0.115172 0.566624 76 0 153
-0.179234 -0.867678 0.015227 76 0 153
0.183968 -0.776302 -0.474514 76 0 153
0.183182 0.271883 -0.463402 76 0 153
0.054672 -0.101356 0.471729 76 0 153
-0.264070 0.255009 -0.360350 76 0 153
0.237916 0.056470 -0.420214 76 0 153
0.199136 0.581700 -0.013768 0 255 0
-0.220305 0.024742 -0.468891 76 0 153
0.161144 0.043105 0.792066 76 0 153
-0.254096 -0.268234 -0.085764 76 0 153
-0.151540 0.266492 0.160432 76 0 153
-0.210820 0.083085 0.548378 76 0 153
-0.060220 -0.159681 0.150099 76 0 153
0.105061 -0.099282 0.712962 76 0 153
-0.097825 -0.101356 0.550000 76 0 153
-0.103526 -0.100817 0.646785 76 0 153
-0.175624 -0.665989 -0.479417 76 0 153
0.177931 0.200129 0.566543 76 0 153
-0.093086 0.574210 0.222904 0 255 0
-0.257972 -0.038833 -0.192476 76 0 153
0.092819 0.271883 -0.111151 76 0 153
-0.260132 0.214071 -0.251934 76 0 153
-0.150253 -0.218850 0.087796 76 0 153
0.241763 -0.274598 -0.374223 76 0 153
